# 3D point list with one line of data per point:
#   POINT3D_ID, X, Y, Z, R, G, B, ERROR, TRACK[] as (IMAGE_ID, POINT2D_IDX)
# Number of points: 334, mean track length: 7.9730994152046781
490 3.9608816839805505 0.88345460523632902 1.908623257587182 200 161 115 0.19632993116516895 48 425 47 376 49 401 50 428
491 3.2159411268191391 -0.80447222156143006 2.1400551137248809 227 182 153 0.13406807481446048 48 436 47 389 49 419 50 449
492 3.7615193401186802 -1.2105840363840654 2.0991837019540243 238 188 158 0.089512568881016413 48 453 47 405 49 447 50 470
494 2.8228681936033491 -1.4933626351685672 2.196617819399699 255 255 255 1.3019225161957915 48 478 47 433 49 467 50 484
495 3.341458716275576 -0.77958989850455684 2.4787228669093628 147 115 90 2.0538532430900895 48 482 47 436 49 478 50 512
496 4.0495211697924747 1.7402559084502949 1.8158569725712392 222 170 137 0.52848733870873532 48 487 47 441 49 474 50 508
498 3.8455595078274052 0.82283042195920841 1.8719826535398369 23 17 16 1.8240807185929651 44 437 45 475 47 447 43 411 42 387
499 4.4196382292530689 1.2749188566828422 2.3234652369205495 255 255 255 0.84158446224818029 46 461 48 503 47 448
500 3.0844199600498454 1.6942898906408526 2.3552344779152556 10 8 8 2.3883418475839475 44 457 47 459 50 507
501 3.8110157244674232 1.7097124751596047 2.0038195886584047 27 22 16 1.5738352394630448 48 477 44 441 46 464 45 466 47 417 48 469 46 447 50 481 50 500 43 405 42 373 41 371 40 355 39 355 38 314 37 342 36 332 35 300 34 306 33 289 32 280 31 291 30 279 29 273 28 270 26 257
502 4.0135545044935279 -2.49065811778063 2.5088755661700217 77 54 33 0.36415789716374142 48 1 49 4 50 102
503 3.4950230630256103 -2.2460120957170844 1.9404235533496026 59 46 35 0.30155237236621546 45 18 49 19 40 6
504 3.6362433316284268 -2.0977776924399278 1.8783278908443768 112 89 70 0.9088563300605812 47 44 49 41 50 36 49 42 43 28 39 26
505 3.9619867283084433 -1.7311432404343734 2.0589683422520757 52 40 29 0.067100641590282659 47 69 49 67 50 62
506 3.0721804825861168 -1.1958413443749949 2.0377978367561989 231 181 156 0.4707034020774219 44 136 49 82 50 81
507 4.2246438701456563 -0.55488992823865724 3.0307629716431004 82 59 39 0.24722025755646532 48 89 49 92 50 86 39 80
508 3.7394880207646728 1.2604949100113578 1.8798577242395493 14 7 4 0.97046948291511037 45 110 49 102 40 134 37 74
509 3.6734114451517237 -2.3561878420580569 2.080998945206483 119 104 89 0.16295576092492214 47 6 49 110 42 76
511 4.2551413548485106 -1.6580886830031287 2.8713211400789245 97 81 60 0.57374081851083103 48 155 49 148 50 146
512 3.1386300921658501 -1.4444566406521084 1.9662190879001706 76 52 35 0.18323759589819003 48 160 49 152 50 148
513 2.9528033074906315 -0.99532848980440314 2.2239687301139472 139 45 43 0.87092680978719661 46 289 49 156 42 158
514 4.1625774532733129 -0.6506442798790486 3.0380717700834317 48 27 9 0.20621248261250816 48 171 49 158 50 161
515 4.1625774532733129 -0.6506442798790486 3.0380717700834317 48 27 9 0.20621248261250816 48 172 49 159 50 162
517 4.2301036130843777 -1.9587339871308462 2.6391580336164866 74 64 50 1.2726674812695939 48 59 49 196 50 260
518 4.1043786246646468 -1.8551144690616215 2.1918062728383205 80 70 58 0.43612546787872469 45 140 49 200 50 209
519 4.2713664869677164 -1.6997601968334628 2.9045158018146915 41 33 23 0.25489322940248366 47 234 49 259 50 273
520 3.8113141880058183 -1.4439124028931731 2.0382315092202403 120 53 36 0.13096556204114387 48 278 49 263 50 280
521 4.2927705012959301 -0.28906901015646935 3.3304669239121272 48 35 24 0.35278760545606175 48 293 49 288 50 301
522 4.3761591018702433 1.5214300868772372 3.400358180543118 20 18 20 0.54915722773696951 48 391 49 296 50 309
523 3.7633296179670754 -2.5244960234062397 2.4494325882691448 255 255 255 0.24078982959479869 48 311 49 304 50 322
524 2.9838421837955087 -1.4941283024157954 2.0356232123722631 195 148 114 0.07198587053971682 48 325 49 323 50 344
525 3.9811535823724937 -1.5050461201992806 2.0860011439805075 146 110 87 0.3246172880365768 48 276 49 324 50 384
526 4.0772461833455065 -0.10852469227674606 2.1578108079851059 7 7 2 0.062022685572380276 47 308 49 344 50 359
527 3.273879758906987 -0.70931391310309211 2.4429289951568252 255 255 255 0.48128040132891348 48 420 49 368 50 423 49 395
528 3.2357566499146451 -0.69867166265892844 2.5693506473228336 255 255 255 1.2325692907401367 49 369 41 228
529 4.3077972184584565 1.4111223268811708 1.7384171015572221 217 161 121 0.31876270580041666 47 379 49 404 50 436
530 4.3077972184584565 1.4111223268811708 1.7384171015572221 217 161 121 0.31876270580041666 47 380 49 405 50 437
531 4.2588459689935556 -1.7375132225705185 2.8812572513440813 44 36 26 0.20811037410737154 48 405 49 412 50 444
532 3.3101586573229516 -0.4824073995992188 2.5053094911936222 255 255 255 1.1129468888168741 48 421 49 423 50 477
533 4.339603191532027 -0.24506605493035455 3.3698150147824242 255 255 255 0.50602078310859988 48 422 49 425 50 425
534 3.8339692495789413 1.4915589125136135 2.0196996395579769 32 25 23 0.34503169357234142 48 442 49 433 50 433
535 3.0371225100725074 -1.5790400213217719 1.9080384416218372 133 96 76 0.69888480934270714 48 471 49 440 50 461
536 3.148301768382737 -1.4762272433085497 1.9929260219373446 107 91 83 0.23192554309048999 48 448 49 442 50 464
537 4.257792599813353 -1.545291306243431 2.9612346197078976 57 45 32 0.1017634742972372 48 449 49 443 50 465
538 3.9939919383314435 -0.94382498200543163 2.9470124483205926 255 255 255 0.18169743087304768 48 459 49 464 50 491
539 3.2269232936637189 -0.55850191630117918 2.4746544974792872 255 255 255 0.49919324627127654 48 492 49 480 50 521
540 3.3079126758587565 -0.068141959743026809 2.6823363083691221 232 180 133 0.94619680001867801 48 493 49 482 50 514
542 4.3449919724893071 1.0112244574125027 2.4451577042073387 255 255 255 0.96724306926870052 48 484 49 484 50 524
543 4.5704549955976868 1.16361869055016 2.6967302442891907 17 16 17 0.91335521126152608 48 505 49 492 50 515
544 4.5704549955976868 1.16361869055016 2.6967302442891907 17 16 17 0.91335521126152608 48 504 49 493 50 516
545 3.4660000453658735 0.78520760318709548 1.9123594605675898 13 10 8 3.488484332517344 48 512 49 501
546 4.3206664342361014 1.4160334420800995 1.71961912124168 217 161 121 1.2830142915055665 44 270 46 305 45 300 49 299 46 182 48 395 47 347 50 401 48 310
549 3.3905468110405717 -2.1710668649688758 1.8714145153142476 79 58 37 0.13912009690079355 47 119 50 27 43 94
550 3.7369251536838086 -1.8355166776136849 1.9158456738334153 74 54 37 0.065755904324130976 44 54 50 54 42 32
551 3.9584156785961375 -2.3419820841080372 2.4347618673123366 95 81 65 1.1287622130051909 48 16 49 26 50 112
552 4.2202462051616152 -1.5203741862178817 2.8161499074395366 38 30 21 0.092243498634772395 48 162 49 264 50 278
555 3.1199776146999554 -0.92509630838371626 2.1747953240444233 233 188 159 1.1958134575011059 49 417 50 447 43 376
556 2.8220946979274437 1.6767638950925654 2.5312083776257319 255 255 255 0.35935597095235977 48 476 49 453 50 480
557 4.2869739309695385 1.3909831545897946 1.7538107401538281 221 165 127 1.4221557734112293 47 430 49 454 50 498
558 4.2850270379820223 1.3832788871204738 1.7487620657172525 221 165 127 0.68499164636112242 47 431 50 499
559 4.2250578059611028 -0.028236067717846019 3.3451499038780286 16 15 19 2.7156044835237485 49 491 50 523
560 4.079587108796213 0.39928557366633899 1.8413034488119107 239 197 154 1.1174206121991288 49 499 50 532
561 3.9540902610542275 -2.1722689492112424 2.124170250065788 59 52 39 0.60309994115884746 44 166 46 196 45 185 50 199 47 42 49 128
562 4.1783731440411955 1.4908975267567648 1.7901830966946881 255 255 255 1.5362345111515336 48 467 46 445 45 438 47 415 49 456 50 453 44 395 45 397 49 434 42 344
563 3.8559330987485687 1.771450478725485 2.0107995783206922 24 20 14 1.3436153651210365 50 318 45 178 47 159 45 342 42 231 40 287 35 239 33 188 31 242 30 195 28 208 27 201 26 238 25 203 25 238 24 210 23 228
564 2.8167567239015519 0.070995244964873527 3.334367943265871 8 7 5 1.9537172304871975 49 483 50 495
565 3.507727483442129 -2.3131541884352278 1.9932698944563663 69 52 38 0.2403981684128515 44 10 43 6 42 2 41 78
566 3.7753404978540281 -2.2336205064802783 2.0084540371475819 60 47 34 0.14958367942464706 44 26 43 21 42 12
567 3.9883658656491066 -1.8707987979275078 2.087865865065238 42 33 26 0.22819276587627796 45 138 43 36
568 3.8046875220261094 -1.6457024754336906 1.9765843964202592 113 88 71 0.015665051446969322 46 70 43 42
569 3.9730466116274741 -1.5984938848812584 2.1417535379109225 144 117 99 0.047446257075044358 44 62 43 43 41 45
570 3.1910986468075908 -1.4999753384755325 1.8780091920470863 188 140 112 0.42849295367207024 44 64 43 44 42 44 41 46 40 38 38 45 37 36 36 33 35 35 34 25 32 30 31 24 28 22 26 19 25 18 24 24 23 14 22 12 21 19 14 16
571 3.2632661425085789 -1.4531646575404991 1.88141970068465 184 138 114 0.17914067362377981 49 76 43 49 42 50 40 43 39 63 38 52 34 39 33 39
572 3.165262852196169 -1.4333798815311998 1.9340713213276588 185 146 130 0.22546028787473993 45 84 43 50 41 109 40 48 38 95 37 101 36 47 34 98 32 92 31 102 29 93 26 31 23 29
573 3.1310159862755667 -1.4278729981929681 1.9684805222453698 184 136 113 0.22204231835929586 44 70 43 52 42 55 41 110 40 49 39 67 38 96 36 101 34 99 31 103 28 92 19 28 16 28 14 21 13 26
574 3.0058469603895448 -1.0070118123757286 2.0912019278830902 187 93 88 0.16501084667546365 44 79 43 60 42 64 39 76 36 54 33 46 32 49
575 3.3472118191526627 0.028946910497854361 2.5585465393474283 32 21 18 0.80987343405933609 44 89 43 74 34 60 31 56
576 3.2853821415471427 -2.2701554077935446 1.9907906840820051 81 68 49 0.85866032467023035 47 12 43 88 42 81 39 97 36 128
577 3.5136166949521161 -2.2304546013036388 1.9219623261743473 91 77 63 0.05771352621311162 44 100 43 90 40 86
578 3.2933266329427635 -0.27270293754735664 2.7192813893537742 217 167 127 0.74241939865990014 45 96 43 132 42 164 41 179 40 174 39 209 38 192 37 199 36 241 35 227 34 208 33 237 32 233 31 239 30 237 29 222 28 225 27 235 26 215 25 216 24 207 23 219 22 201 21 211 20 197 19 185 18 183 17 186 16 213 14 219 15 209 13 210 12 227 10 224 9 219 8 246 7 255 6 247 5 231 4 230 3 192 2 189 1 157
579 4.1653025461954707 -0.12048087768591205 2.1188937249709889 53 51 52 0.23898011688749399 46 172 43 134 42 166 40 175 39 176 38 151 37 120 36 162 35 152 34 118 32 115 31 128 29 58
580 4.1648891004069588 -0.12106287035149584 2.1097693412337177 53 51 52 0.29506814721650076 46 173 43 135 42 167 41 121 40 176
581 3.8978333273474757 1.393213690194242 1.952575883133054 133 100 76 0.47530534187512774 44 92 43 139 40 181 38 155 34 153
582 3.6546094317646931 -1.8401079260989976 1.8728597811336993 138 110 89 0.14364176653040306 47 178 50 261 43 152 41 145 40 152 39 153 37 137 31 82
583 4.3147569485548996 -1.3002885739883148 2.9641733789665303 31 23 15 0.51474748176515728 44 237 43 167 42 202
584 4.6626860674921744 1.3950256199965729 2.4721893148830656 75 66 58 0.34214950646150166 43 179 42 169
585 3.822421855114809 1.6148961642013002 2.0292829095155822 17 13 10 0.39935988822626278 44 206 43 182 42 174 41 187 39 178 38 156 37 166
586 4.2840816709246026 -1.5011474758530539 2.9260266000885373 47 37 24 0.62020534407521544 44 233 43 214 42 198
587 2.9288736902170189 -1.0334721956217254 2.2338469978554221 169 72 67 0.21325550125652326 44 301 43 222 42 208
588 4.3032987168178023 -0.73484634447950903 3.0286557086935404 79 61 38 0.67331114487240074 45 276 43 233 40 212
589 4.724886745903139 1.1574917414952957 2.0195365404290255 133 115 93 0.78065366845776829 45 228 43 245 39 250 38 247 37 267 36 246 35 256 34 237 33 209
590 3.8421436427215188 1.8155458529758672 2.0425377905650355 255 255 255 0.96449823735632212 44 272 43 249 42 305 39 220 37 272 34 243 28 178 25 163
591 3.6836448208433197 -2.4957096101571929 2.320944937641078 255 255 255 1.7695234449882855 44 275 43 251 42 235
592 3.5727729798546384 -2.6099755472747295 2.6691532689409336 255 255 255 1.9916017191567104 44 276 41 244 37 214
593 4.0391056188416066 -2.4160624277870038 2.5365729448975634 36 27 18 0.79540861165968713 44 323 43 256 42 238 41 188 40 144 39 101
594 4.3069267529786099 -1.6531285423343045 2.9051174024796955 255 255 255 1.4162049590798815 44 361 45 359 43 273
596 4.0333975256191632 -2.570049183865621 2.5147844227383644 89 71 52 0.40501048161975406 44 320 43 304
597 3.6574260145445443 -2.0708832185629653 1.8824852496374904 124 98 78 0.30811872149084557 46 353 43 309 35 160
598 3.8883413185948212 -1.2568329316037794 2.0555669440540489 239 180 153 0.24892822867960848 44 344 43 322 42 292 41 303 40 274
600 2.8663773256857228 -1.5628081713185473 2.2948386760216812 91 75 61 1.0122766928103673 40 337 39 334 38 311 37 331 36 333 35 308 34 308 33 296 32 290 31 297 30 295 29 290 28 274 27 287
601 2.920308541606937 -1.5982254177200286 2.0425665254463192 229 185 158 1.3192345123881015 44 383 43 358 42 351 41 350 40 328 39 333 40 336 38 298
602 4.1624030330046686 -2.2893816079280276 2.6068144121519126 66 50 35 1.2663435129227205 44 398 43 371 42 349 41 337 40 315 39 263
603 2.9068539859459626 -1.3052038576175879 2.1159895654330456 230 180 158 0.46913154343586533 44 402 43 373 42 352
604 2.5289914413467227 1.4669538101634476 2.9899056370705677 255 255 255 1.4818723365016031 43 380 42 356 42 369 41 355
605 3.999119555965859 -0.31037323982593062 2.7924022334266927 227 181 136 1.2434277073379256 44 448 43 409 42 385 41 385 40 361
606 3.8335898715289387 1.1143965367533502 1.935773799600861 20 14 13 0.32482215031988143 47 458 43 417 42 393
607 3.7304716538059872 1.9084395604058491 2.0440968602365626 255 255 255 0.098141341045973551 44 458 43 419
609 3.1426704975700335 -0.95753865227591739 2.0681391443168318 228 174 153 0.36093479634520848 44 303 45 330 43 283 48 337 46 332 45 366 44 346 47 301 49 337 50 354 42 297 41 308 39 276 37 260
611 3.6548515520254767 -2.0714486615210808 1.8755806779654633 129 103 83 2.1071134610854876 48 250 44 209 46 255 43 188 48 198 44 169 46 199 45 187 47 171 49 188 47 168 49 185 41 138 40 183 39 183 37 129 36 131 35 116 34 129 33 126 32 71
612 3.2003664039185331 -2.2518876121848415 1.9860179314615716 77 63 44 0.75572791820552387 43 15 42 5 38 3 37 2 36 1
613 3.6126593264542817 -2.0735372925011655 1.8751675367140344 128 103 82 0.23247191050161103 47 49 42 24 41 23 40 21 39 28 38 25 37 22 36 20
614 3.638377909106258 -2.060609201511304 1.8791473163628549 138 111 90 0.33354161231230706 49 47 42 25 37 24 36 21
615 3.8339214604017404 -1.7078891573557589 1.9697166861109769 57 40 25 0.301343755026102 44 123 42 36 41 37 40 33 39 52 38 40 36 29 35 30
616 3.1001786810107546 -1.4769871908676753 2.0204630872517666 112 65 45 0.1713161155913733 43 48 42 49 41 53 40 44 39 64 38 92 37 96 36 98 35 88 34 40 33 89 32 37 31 97 30 99 29 38 28 34 27 33 26 26 25 23 24 32 22 18 20 20 19 20
617 3.0913723256905716 -1.4612326192029494 2.0215399098974696 137 90 65 0.59987464726040163 45 82 42 51 40 109 33 135 32 136 31 144 28 126 27 190 33 161 26 98 26 127 24 129 23 112 22 90 21 87 21 121 19 109 18 131 17 118 16 124 15 124
618 2.8729491895270867 -1.4800822993200422 2.3185919553368475 184 140 120 0.17642002965601736 43 53 42 56 40 111
619 3.1433233739205462 -1.4092917315996973 1.9546502770835041 162 114 88 0.16081985631702908 44 71 42 57 41 55 39 68 37 52 36 48 34 43 33 42 32 43 31 37 30 48 29 43 28 43 27 36 26 32 25 29 24 36 23 30 22 28 16 30
620 3.8533685672206732 -1.4058580741393141 2.1090187722486284 236 181 162 0.12784767708941919 43 55 42 60 41 112 40 116 39 129
621 2.9637209603213979 -1.0036583633957346 2.1241194535077272 165 72 71 0.22749135352489203 42 65 41 60 40 57 39 77 38 108 37 61 36 112 35 100 34 110 33 107 32 108 31 125 30 118 29 108 28 111 27 101 26 82 25 79 24 86 23 93 22 76 21 72 20 76 19 60 18 60 17 67 16 74 14 34 15 71
622 3.0587284805378081 -0.9773640408391886 2.0937215019041622 205 106 103 0.15009529932211449 44 81 42 66 41 61 40 60 39 78 38 64 37 65 36 59 35 54 34 52 33 49 32 50 31 47 30 60 29 56 27 48 24 46
623 3.4814949664522294 -2.2539249246886413 1.9457590886919336 78 70 55 0.23938565203277015 43 89 42 82 41 81 40 138 39 142 38 79
624 3.4698204746136954 -1.9782629356567112 1.820847412663916 197 158 132 0.17736497540960727 48 135 42 92 41 94 38 28
625 2.8401308308349904 -1.1613103047381055 2.019282922264559 179 127 110 0.1736354117580001 43 124 42 103 41 165 40 165
626 3.6429618597648989 -2.0076253078350517 1.872939888664118 96 71 51 0.14776549441640632 49 191 42 130 36 134 35 119 34 130 33 127 32 127 31 137
627 3.5898678594886975 -1.8399224904524603 1.853857304598528 130 97 75 0.16104308272092238 45 196 42 134 41 96 40 101 39 110 38 85
628 2.8996916833522475 -1.4479777624853192 2.2188147077308522 177 128 104 0.80941056587518845 43 54 42 146 40 204 39 239
629 2.8709570401290754 -1.1596476429483793 2.0107836847537688 214 159 145 0.57754076745604566 43 123 42 152 41 164 40 163 39 166 38 144 37 154 36 155 35 141 34 145 33 143 32 143 31 149 30 148 29 138 28 101 27 90 26 76 25 74 24 43 23 34
630 3.7080857674087837 -2.441701534854618 2.2416649693766777 95 79 61 0.34235335778296111 43 254 42 177 40 137
631 4.4329547374393945 1.4270463872322898 2.0195742614155692 255 255 255 1.7357976074708983 43 351 42 228
632 2.8053141818798628 -1.6957567685909136 2.4154147319851926 131 90 70 1.2454044083539191 42 248 41 253 40 268 39 270 38 235 37 251 36 180 35 166 34 162 33 157 32 163 31 172 30 169 29 230
633 2.8601735345017927 -1.5248545710332619 2.342572545522787 45 30 20 0.78266179125369295 43 210 42 254 41 298 40 270 39 294 38 258
634 2.9558335340718003 -1.247073695124612 2.0038883335778164 211 155 134 0.26008358738873599 47 338 42 293 41 304 40 275 39 273 38 237 37 256 36 259 35 250 34 233 33 232 32 230 31 233 30 232 29 216 28 200 27 210 26 193 25 174 24 173 23 144 22 124
635 4.3481211001310527 -1.0373645194742429 2.9871341851562816 255 255 255 0.92064069131627169 43 364 42 315 41 341 40 300 39 313 38 242 38 279 37 289 36 238 36 280
636 3.1663874348013508 -0.25710398031134968 3.0837994189816329 231 186 148 0.50382082443310605 43 348 42 319 41 328 40 306 38 266 37 302 36 281 35 278
637 4.3397962985108576 -1.4671008168808644 2.9463524071690324 255 255 255 1.4816001539663977 43 360 42 330 41 352 40 296 39 298
638 4.1846085122565837 1.4907497551441493 1.7601368275394169 255 255 255 0.96881683585703426 43 393 42 371 41 357 40 345
639 4.1832641472624328 1.4865586935491493 1.7452591298044029 255 255 255 0.098777039325876725 43 394 42 372 40 346
640 3.7906044348669203 -0.98507534437677757 2.251560032372693 210 164 125 1.0212392557300138 42 382 41 378 40 351
641 3.2267454307655252 -0.10905451620531874 2.8847853650302397 241 187 146 2.188878625579818 43 410 42 386 41 386 40 362 39 360 37 341 36 338
642 3.9960460811782763 -2.4857704648638062 2.5007459678666373 143 110 77 1.2363227573415636 42 77 48 107 44 9 46 112 45 115 47 102 49 170 50 187 43 7 41 2 41 4
644 4.0783935837029208 1.7814518285336072 1.7972964782669114 222 169 135 1.5407954323249404 44 377 48 443 46 414 45 398 47 397 49 437 50 455 42 346 46 449 45 440 40 313 39 309
645 4.1263311108915506 -0.098620594960189822 2.6090343286603459 14 14 10 1.8979065679320688 44 461 42 395
646 4.0435198545055169 -0.0801901565456032 2.3096907778867757 11 10 6 1.7738901527266209 43 423 42 399 41 396 40 374 39 370 38 331 37 354 36 354
647 4.1488210983312594 -0.31195145016408182 2.3996490847413328 37 29 28 1.2647576356554053 45 168 48 231 45 98 47 202 49 225 43 70
648 3.4711903613730035 -2.2149245003255347 1.9080214444460433 69 52 36 0.099689477370221574 44 23 41 6 39 6 36 5 35 9
649 3.5566152386514238 -2.0092636977367255 1.8338901367999054 160 125 100 1.0480811902532929 48 44 41 26 40 24 39 33 38 27
650 3.5042251296345595 -1.9205285833125159 1.8256055709521237 193 154 129 0.079188307402924596 48 51 41 27 39 39
651 3.8360926491313676 -1.7096773967726973 1.9751046849613449 59 42 26 0.24154276077718478 42 37 41 38 40 34 39 53 38 41 36 30 35 31
654 3.1510786443594392 -1.4400419608648749 1.9446400256380854 76 53 36 0.6712933445866166 42 54 41 54 40 110 38 53 37 49 36 46 34 97 33 40 32 41 32 91 31 34 30 44 29 92 28 39 27 35 26 68 24 72 23 74 22 65 20 26
655 3.8558599218957146 -1.4167368135077578 2.0744155424840716 168 98 70 0.32695407923251441 42 59 41 56 39 127 38 139 36 150 35 136
656 4.053680706451197 -0.29681402155668202 2.3681328157661885 217 176 148 0.26437291951797476 50 88 41 66 40 66
657 3.5623910899487417 -0.052768088673351463 2.3319864285606919 25 15 10 1.5961249458466771 44 88 41 67 39 85 37 69 36 66 29 60
658 3.8752330812464084 1.4535024288574876 1.9654850839353828 38 29 25 0.84203392977529201 46 104 41 71 36 123
659 3.4878147529826644 -2.2930420082370646 1.9789195663435541 32 25 9 0.099760974248739837 42 79 43 11 41 79 40 84 39 95
660 3.7778679063146772 -1.8327649855634429 1.9317990819601336 105 86 68 0.16439354461916109 47 134 41 98 39 112 34 87 32 77
661 3.781132451099384 -1.8398409999996661 1.948895839716049 105 86 68 1.0411276113113703 47 133 41 99 39 113 50 262
662 2.8900510299020779 -1.4935435771114351 2.2539431467047235 164 139 125 0.4054251975407811 42 52 41 108 40 46 39 123 37 148 36 147 35 171 34 168 33 162 32 168 31 175 30 172 29 191 28 184 27 149 26 173 25 170 24 169 23 174 22 156 21 158 20 149 19 139 18 98 17 117 16 122 14 133 15 122 13 128 12 130 11 122 10 99 9 105 7 117 6 83 5 80
663 3.8568258761338079 -1.3506295907604717 2.1063164844126385 250 197 170 0.13433906352331407 42 102 41 113 40 117
664 3.1951877335017937 -0.36856838053415542 3.1774839627867553 14 9 6 1.4512581161837463 42 70 41 120 40 121 39 174 38 150 37 118 38 68
665 2.9156238063059177 -1.4614999073566255 2.0710773324005696 130 86 70 0.59264387423092846 42 99 41 155 38 55
666 3.7579652328365638 -1.382157611103443 2.051016197938698 237 192 157 0.10582519731851853 43 166 41 163 38 141 37 110
667 2.9974804986179198 -1.0270259880282548 2.0900655637364491 187 93 85 0.31544831228399556 42 156 41 168 39 168 37 156 36 158 31 182 29 172 27 163 25 144 21 99 20 127 18 109 17 123 16 134 14 144 15 135 13 138 12 147 11 101 10 114 9 115 7 133
668 4.7227195081718234 1.1712382690125329 2.0034091718850364 128 110 90 0.46796910938886072 42 114 41 183 40 179
669 2.8115489830356348 -1.6845792008873 2.1798202492299694 237 194 173 1.5336257939359186 42 140 41 201 40 194 39 230 37 249 36 256 35 260 36 268 34 245 33 241 32 236 30 259
670 4.0097656551521181 -1.5056144679972752 2.0972424887867143 86 69 53 0.3536367445916494 42 253 41 207
672 4.2866844294229907 1.37502177256002 1.6382557629764123 216 161 121 1.6189740470638594 42 322 41 239 40 223
673 3.8172429885891543 -1.4329852417362916 2.0611782399084158 119 42 19 0.046312895157335832 42 257 41 260 40 243 39 238 38 216 37 231
674 3.1534164166539331 -0.33518952568620536 3.1929939766109277 9 6 4 1.4909795614357528 41 272 39 280 38 243 34 255 33 250
677 4.2161701233084248 -0.25527004786514501 2.5745614450664087 29 26 26 0.89049535537478308 42 337 41 354 40 333 39 328 36 320
678 4.3174015673095498 -0.3716344495688646 2.9053970564456253 255 255 255 1.8207217685917891 42 367 41 367 40 343
679 3.475166010372523 -0.81999841688799924 2.3687666222613468 145 109 80 2.2356600709287617 42 378 41 379 38 303 37 323 36 319
680 4.3529479031809712 1.6780955788782039 2.0220306953911926 255 255 255 0.96017058977860092 42 396 41 394 40 368
681 4.5178183170252533 0.85854165311339392 1.9939753948485426 0 0 0 2.4497497539891109 45 487 46 493
682 3.3589447339529626 0.90084586599441507 2.5549157558428033 12 9 7 1.4937583810493462 42 407 41 404 40 381 39 377 38 338 37 361
683 3.7647698362354656 -2.5460305053067294 2.4009117636105364 255 255 255 1.6392434129732456 45 400 43 329 42 306 41 336 44 415 46 451 45 441 40 314 38 274 37 273 36 127
684 3.3175548796450585 -2.1971763545841489 1.9083062644239122 69 54 34 0.16519389044848737 42 9 40 8 39 12 38 8 37 81 35 64 34 70 33 71 32 65
685 3.1402695545646124 -1.5181926476028627 1.8904597244143468 133 88 64 0.16850474461885864 42 43 40 37 39 56 38 44 37 93 34 90 32 79 31 23 27 16 21 15 20 59 18 44
686 3.1421102786922086 -1.4681017611340113 1.9441829500405174 42 27 17 0.15626876074320079 41 51 40 41 39 62 38 50 37 42 36 39 35 42 33 35 32 85 31 29 30 40 29 34 28 31 27 31 25 21 24 30 22 19 21 24 19 22 16 26
687 3.7812991411349421 -1.3805988909785949 2.0660916011868276 143 79 56 0.46886266290021589 42 150 40 52 39 71
688 3.8265169416384412 0.62245637252498376 1.8462547026209495 41 31 24 0.20045879182910556 42 72 40 68 38 71 37 71 36 69 34 61
689 3.9136340686827285 0.74404488189431717 1.8648932761995489 152 116 87 0.20785943936231172 41 68 40 69 34 62 33 53 28 60
690 3.5800244386892812 1.6737936004596332 1.9973745169119252 48 50 45 0.26249442040927734 44 95 40 77 37 77
691 3.6660658753068693 1.7319360301841762 2.0186997372634585 59 58 57 0.11137672274425053 43 80 40 78 39 91
692 3.6660658753068693 1.7319360301841762 2.0186997372634585 59 58 57 0.11137672274425053 43 81 40 79 39 92
694 2.8048064904066519 -1.6314540160511288 2.2873252484125857 192 148 127 0.39846139684186493 41 43 40 106 39 158 38 175 37 178 36 225 35 210 34 230
695 4.1392750237122353 -0.30640535699744131 2.5019798231476864 202 161 132 1.524502069205903 41 178 40 122 39 81 36 114 32 181 30 183
696 3.2871521326789943 -2.159063409336476 1.8756474967102927 94 72 51 0.1102960657264713 41 131 40 141 39 143 38 122
697 3.8058725135461366 -1.6863753336559248 1.9732038066870425 61 40 25 0.22712482841599252 41 147 40 155 38 131 37 92 36 90 35 79 34 88 33 82 32 78
699 3.0462146301445179 -0.9054310694428247 2.1256828056594936 215 169 144 0.25741513677049899 41 172 40 172 37 159 35 149 34 152 32 147 31 153 30 154 29 142 28 143 26 114 25 112 23 131 22 111 20 105
700 2.9408885254791621 -2.0899599961035027 2.0982582429981798 240 194 169 0.76956536715070578 41 190 42 128 40 184 39 225 38 230 37 244 36 266 35 259 34 269 33 254 32 247 31 256 29 259
701 3.109981992637922 -0.32076646270965842 3.5368731473949269 8 7 5 0.72836868832465174 41 230 40 214 38 191 37 198 36 199 32 182 31 187 29 176 28 166 26 150 25 150
702 4.2866844294229907 1.37502177256002 1.6382557629764123 217 162 122 1.6189740470638594 41 240 42 323 40 224
703 3.3760524348416365 -2.2062808893928678 1.8923797193261107 97 84 65 0.33217227333619614 43 186 40 232 39 182
704 4.1913013520108198 -1.0848362013050992 2.8520937872480618 30 17 6 0.3713121713090215 41 264 40 249 39 206 38 147
706 4.7153064052686213 1.2026108191061529 2.1064255943223849 255 255 255 1.0492094459353154 41 277 45 173 40 284 39 285 38 270 37 293 36 287 35 271 34 258 34 239
707 4.2253119160685362 -2.2302536007309892 2.6192133590120181 255 255 255 1.6630983428853758 41 317 40 291
708 3.804883143624548 -1.575255026713547 2.0010917844860203 81 54 35 0.40585887713430085 41 319 45 381 40 292 39 293 38 256 37 277 36 270 35 262 34 231 33 229
709 4.680560416400243 1.6850700350690946 2.2266301173067973 147 123 97 1.3010914536946399 41 347 40 323 39 319 38 272
710 2.9617905666850972 1.7922754432827255 2.5160575261480154 0 0 0 0.25708312188896892 41 333 45 416
711 4.7665170326928141 1.3025135547022886 2.1606817273739805 255 255 255 1.1745512541575245 41 369 40 344 39 345
712 3.9308330555720041 -1.5121586355674994 2.1747709245134068 234 184 157 1.9798305980307258 41 376 40 348 38 300
714 2.7412163520825037 1.5006332837636669 2.8183168298067813 11 9 9 1.8042687639710824 40 363 39 361 38 318 38 324 37 345
715 3.1297043772983271 -0.53566381375273586 3.0726073098036863 255 255 255 0.9872152147429385 41 390 42 391 40 365 39 364
716 2.6226574290839753 -2.0275946173050756 2.29434432273227 255 255 255 2.5171354880711525 41 401 42 404 43 427 40 379 39 374 38 335
717 3.3589447339529626 0.90084586599441507 2.5549157558428033 12 9 8 1.4937583810493462 41 403 42 406 40 380 39 376 38 337 37 360
718 3.9263965029269339 0.77923739841102502 1.863760129371572 161 121 85 0.62693032010620997 43 242 41 238 40 221 48 235 44 199 46 239 45 224 47 203 49 228 50 172 43 176 41 180 39 213 38 195 37 203 36 204 35 154 35 191 34 181 33 149 33 179 32 152 32 186 31 157 30 157 30 186 29 149 27 140 26 118
719 3.4699323966296673 -2.2137675484129886 1.905437153042572 68 51 36 0.075014259259201854 36 6 35 8 39 7
720 3.3175548796450585 -2.1971763545841489 1.9083062644239122 68 53 33 0.16519389044848737 40 9 42 10 39 13 38 9 37 80 35 63 34 69 33 70 32 64
722 3.6045089352379431 -1.7331021558381245 1.8810697099555054 182 147 125 0.11295474878075307 44 122 39 48 33 25
723 3.1165923040297074 -1.4690738069986249 1.9902884468232818 128 99 84 0.11765998433116694 40 45 39 65 37 45 36 41
724 2.9349403180401907 -1.1659704025121655 2.0250649814860355 62 14 9 0.41599364326297772 41 57 39 72 38 61 37 59 36 52
725 2.9803503009824124 -0.91821361752518915 2.1712279557821801 147 84 70 0.33821820876922193 40 62 39 79 38 111 37 115 36 161 35 148 34 151 32 177 33 204 31 185 30 214 29 175 28 164 27 197 26 148 25 179 24 147 23 183 22 165 21 165 20 156 19 147 18 140 17 151 16 176 14 180 15 170 13 173 12 187
726 3.8810848731296916 1.4668262897472535 1.9543256321846827 109 83 67 0.39888862800034702 40 74 39 88 34 66 35 112 33 120 32 122 31 133 30 129 28 147 27 111 26 119 25 86
727 3.7264704082509379 -2.2162367835837347 1.9711988039965724 100 86 69 0.47101267064076824 40 89 39 99 36 8 35 16 34 9
728 3.1327198672134591 -1.4444206007366382 1.9667663444745276 77 52 34 0.28030198690103991 42 100 39 121 38 93 37 100 35 89 32 90 22 63 21 60 19 53 18 21 17 21
729 2.8927719414535242 -1.4957616313896376 2.2497565534443753 178 149 143 0.23419988242373213 42 53 39 122 38 94
730 3.8497694327993845 -1.4054158770888352 2.1018682015191277 234 179 159 0.19115869484771247 40 115 39 128 38 99 37 151 36 151 35 137 34 141 33 138 32 99 31 114
731 2.9208167334095645 -1.129292161546688 2.1106084042717042 134 80 65 0.1600685225421303 40 118 39 130 38 104 37 155 36 157 35 143
733 2.8583294278429658 -1.4815669461030607 2.409972553910384 173 123 96 0.53663909467515913 40 51 41 162 39 163 38 182 37 229
734 3.9332553063051394 -1.4232739052012076 2.0522723036269492 208 129 104 0.22935958370264184 46 325 39 201 38 183
737 4.3510193320347614 -1.2471313830915518 2.977165671137771 255 255 255 0.26735414553886855 40 298 39 274 38 241
738 2.9406715790398241 -1.0878378006019911 2.1798351575574051 242 189 166 1.3924259846117344 40 277 39 275 38 264 37 286 36 279 35 275 34 274 33 259 32 250 31 260 30 261 29 247 28 242 27 253 26 245 23 246 22 230 21 234 20 220 19 209 16 237 14 241 15 227 13 233 12 249 11 243 10 259 9 264 8 277 7 292 6 322 5 298 4 301 3 305 2 303 1 305
739 2.6540526400999265 1.5856034278392197 3.1202719967265562 8 7 5 0.57528085570454091 40 309 39 306
740 2.9408251996536419 -0.98833455185527685 2.5494085309506689 255 255 255 0.76827018876081199 40 301 39 314 38 289 37 312 36 317 35 296
743 3.1900678122506245 -1.2410366811489733 2.0162325937879748 242 189 162 1.7813483884622698 39 366 38 325 37 346 36 346 35 319 34 316 33 306 32 297 31 308 30 304 29 293 40 370 28 279
744 4.0553852506092323 -0.064789690217350232 2.3313524136494301 9 7 4 1.960926445773121 40 375 39 371 38 332 37 355 36 355 35 324 34 323
745 3.8663801999189573 -2.0690178058871158 2.3348551651296998 0 0 0 1.1505253196695997 45 490 46 496
746 3.6851293973521084 -2.1841742654586582 1.943488886465409 63 45 30 1.86039505487093 48 28 44 32 46 30 43 25 41 13 39 19 48 24 44 29 46 27 45 29 47 26 49 30 43 23 42 14 41 12 40 14
747 3.9544273326451842 -1.7059607272459791 2.0378158419036256 73 61 48 0.78543638781791003 42 39 41 40 40 36 39 54 48 150 44 56 46 144 45 71 47 70 49 145 50 142 43 40 42 40
748 3.8376754181929265 -1.450385150910511 2.0458857703217106 241 198 173 0.43270153824443258 41 156 40 161 39 161 44 232 46 278 45 261 47 239 50 216 43 213 42 197 41 209 40 203 38 137 37 150 36 149 35 134 34 104 33 99 32 97 30 107 24 37
749 4.3264211151787375 -1.024725303193907 2.9743986929705408 255 255 255 1.0307818258988704 48 417 46 405 47 369 41 265 40 250 39 207 48 289 46 290 45 271 44 302 47 246 49 336 50 290 43 226 42 212 37 196
750 3.6794589446070209 -1.8262082481694912 1.8618269544138351 45 32 20 2.290010454399114 46 60 48 145 39 45 45 64 47 64 49 64 50 56 37 30
751 4.0511789594210104 1.7469856503905272 1.8129271204127124 148 113 91 2.0458134660511145 39 348 48 488 47 442 49 475 50 509 30 281
752 3.6515823882305987 -2.0682877024527708 1.8722513445168731 126 100 80 1.5037519080826187 48 364 46 352 43 308 41 248 39 184 43 189 44 170 46 200 47 170 49 189 41 139 37 130 36 132 36 174 35 117 34 128 33 125 32 70 31 77 30 23
753 4.362474272627848 -0.14250673461887201 2.4073437905267703 32 30 31 0.3868866789805655 45 413 39 281
754 3.4035925560457025 -2.3161629452741108 2.027394039444653 57 46 27 0.15879110735703997 40 2 38 1 37 1
755 3.3881245073054536 -2.2586191960474542 1.9591160373648904 57 46 27 0.33968603918830553 40 5 38 4 37 3 36 74
756 3.2599435744180676 -2.20795510374221 1.9245293163037267 64 49 29 0.20725091634512063 39 9 38 6 37 6 36 4
757 3.2630188476205571 -2.212841651010709 1.935627403864181 64 49 29 0.22588822232591063 39 8 38 7 37 7 36 3 34 2 33 3 32 2
758 2.9057065737684198 -1.4935650357341022 2.2202203472009909 105 63 49 0.16991088359027465 40 47 38 54 37 50 36 100 35 90 34 96 33 92 32 89 31 101 30 102 29 90 28 89 27 122 26 65 25 93 24 102 23 111 22 89 21 85 20 63 19 84 18 48 17 57 16 66 14 63 15 59 13 61 12 65 11 13 10 13 8 27
759 2.887671729598674 -1.4591542718076007 2.268200894968706 163 116 93 0.24832842682703021 39 69 38 57 37 54 36 49 35 48 34 44 33 97 32 96 31 38 29 95 28 94 27 83 26 71 25 68 24 73 23 28 22 64 21 59 20 65 19 51 18 52 17 18 16 24 14 64 15 27 13 22 12 27 11 15 10 16 9 19 8 33 7 27
760 3.8412382470152249 -1.3047921133932849 2.0851267415999835 202 125 100 0.5412704611250031 40 53 38 59 37 56 35 98 34 48 31 41 30 53 29 98 27 88 26 39
761 3.5601734810057191 -0.067784979362565348 2.3350817088557161 223 178 149 0.74782024083116216 39 84 38 69 36 65 34 57 33 51 32 55
762 4.031545423313915 0.87991856884716046 1.8046864465881629 222 177 136 0.17396514120473858 43 77 38 73 37 73 36 70 35 61 33 54
763 3.876104139690653 1.5418106488580461 1.961722562147028 111 88 71 0.43439548781377213 39 89 38 74 37 124 36 73 35 113 33 152 31 163 30 131 28 148 27 143 26 121 25 119
764 3.849569178463244 -1.2941203006000577 2.0589967134368905 238 176 151 0.27319047591628975 43 57 38 103 37 112 35 99 34 107 30 110 27 92 26 78 25 76 23 39 22 37
765 4.2135200833029973 -0.11914909098511946 2.1333605300532494 48 42 38 0.13777028468984287 40 123 38 115 36 116 33 50
766 3.6430472186834777 1.710733678611758 2.0076623509385318 56 54 55 0.22616944941080505 39 179 38 157 36 167 35 114 34 125 33 67 31 67
767 3.5431057467410279 -2.3494748225725188 2.0445188316607918 89 72 56 0.52108306391633319 39 180 38 158 37 168
768 3.3485280038091947 -2.220995884231598 1.9269770199317537 63 51 33 0.15112852110729194 39 222 38 162 36 172
769 4.6755346707695953 1.7275069883494962 2.1832703017155426 149 123 97 1.242673596413866 39 218 38 200 37 211 36 126 33 123 31 63
770 4.6755346707695953 1.7275069883494962 2.1832703017155426 149 123 97 1.242673596413866 39 217 38 201 37 210 36 125 33 122 31 64
771 2.9358896818185651 1.7679457099487872 2.435773114308573 6 5 3 0.08382196902640518 39 219 38 204
772 2.8178108793393153 -1.5902648522823148 2.3725703145655532 129 80 58 0.14328259602835569 39 199 38 211 37 252 36 258
773 2.9863586889370208 -0.96298722247036872 2.1692943150256414 215 110 106 0.39480389523445902 39 247 40 251 38 222 37 237 35 226 34 206 31 217 30 213
775 2.888558245663968 1.5994872141337853 2.3973301009633867 255 255 255 0.090339520296020964 39 290 38 252
777 2.5254398851442019 1.4617093615564514 3.0990661708232223 255 255 255 1.7857435676827667 39 330 40 334 38 292
779 3.3207928330422125 -0.70614435560088262 2.4584285292714845 109 77 54 2.1994099509099381 39 340 38 304 37 325 36 309 35 286 34 289 33 275 31 281 30 288 29 283 28 264 27 272 26 264 25 261 24 252 23 264 22 245 21 251 20 244 19 234
780 4.1095761968195124 -0.69298676775132262 2.7209811242557351 41 20 9 0.28926330678608397 39 353 38 306 37 313 36 301 34 55
781 4.2182059384484569 -0.48513561537555849 2.4467408957857177 255 255 255 2.3116102014710584 38 327 37 347 36 347 35 322 33 308
782 4.7449322910956964 -1.5479451379170768 3.2464599728422581 255 255 255 2.2060948862839034 39 372 38 333 37 351
783 3.722472231637969 -2.2105388940085824 1.9615545508157164 100 85 69 0.30625701592670002 41 84 40 88 39 100 38 15 44 28 46 23 47 22 50 22
784 3.2685011671080288 -1.9754666720139253 1.8043997822796203 192 144 117 0.5661751048681698 48 402 44 356 46 393 45 378 49 378 50 408 43 332 39 291 38 254 41 284 40 262 39 264 37 245 36 267 35 242 34 224 34 244 30 222 29 205 28 192 27 203 26 189 25 185
785 3.2344246733297171 -2.1071305414261126 1.8580395296265688 150 117 92 0.16398442850912665 41 17 37 12 36 11 33 14 34 75 32 15 31 14 30 17 29 9 28 8 27 6
786 3.2417148220994205 -2.0959383784095178 1.8427490429166693 132 96 73 0.18537782979381309 38 17 37 14 36 12 35 18 34 10 33 16 32 16 31 15 30 18 29 11 28 10
787 3.4868702048716131 -2.0504049880474997 1.8188917948854373 147 112 85 1.0581209027431457 45 48 37 20 36 18
788 3.7582464753948899 -1.5426894584384216 1.9843068556523358 94 62 40 0.20618500434018094 39 58 37 38 36 92 35 36 30 42
790 3.8351147165026358 -1.3022465264217762 2.079155870446503 203 127 101 0.38849351825680212 38 60 37 57 34 49 31 40 30 54 29 99 27 89 26 38 25 36 23 38 22 36
791 3.179698409381301 -0.97907668300117323 2.055182907089371 193 144 119 0.16701316232939845 40 58 37 63 36 56 35 102 34 111 32 111 30 120 27 104 26 86 25 83 21 75 18 63 17 33 16 46 14 38 15 42
792 3.1639016348645144 -1.4557605916865419 1.9343521991162669 64 50 37 0.39092755926166467 39 66 37 98 32 86 31 99 30 101 29 88 28 88 24 34 22 25 20 24 19 23
793 2.9166141602117817 -1.4669038586088994 2.2129975097067014 200 147 127 0.24348660985170528 38 56 37 102 36 102 35 91 34 100 33 41 31 104 30 104 28 91 27 81 26 69 25 66 24 70 23 72 22 61 21 57 20 21 19 50 18 50 17 59 16 69 14 15 15 61 13 63 12 26 11 14 10 68 9 64 8 34 6 40 4 27
794 2.908106068414825 -1.4501560613813587 2.2363868055015774 188 136 109 0.32816434396944194 38 58 37 106 36 106 35 93 34 103 32 138 31 147 30 144 29 135 28 130 27 125 26 99 25 96 24 74 23 75 22 66 21 89 20 91 19 52 17 89 16 95 14 66 15 63 13 65 12 66 11 47 10 69 9 20 8 80 7 69 6 41 5 25 4 28 3 34 2 33
795 3.7045811115469296 -2.432807167032168 2.2317104395812795 87 71 55 0.29873883929572148 38 77 37 126 36 169
796 3.6861786287402731 -1.8122388989544558 1.8950808746199614 123 97 77 0.15122104563291894 38 129 37 140 36 139 35 123 34 85 33 81 32 76 31 85 30 24 29 20 28 18
797 2.9486937554689856 -0.97191961133435023 2.3347592356021023 217 167 143 1.1618415588456801 38 109 37 158 36 196 35 185 34 207 33 235 32 231 31 237 30 248 29 235 28 221 27 234 26 211 25 215 24 205 23 238 22 199 21 210 20 194 19 200 18 180 17 196 16 228 14 216 15 204 13 205 12 222 11 222 10 246 9 240 8 263 7 273 6 297 5 281 4 287 3 286 1 284
798 4.7621877985113574 1.0023165409234995 2.0042213139435114 149 126 104 1.2817433045588755 38 197 37 205 36 205 34 182
799 3.8367647238476126 -1.5377696688923468 1.9727464066139584 242 187 164 0.16797511845394911 41 255 37 226 36 227
800 4.1728292855669631 -0.51867674113270335 2.8243522189739378 55 41 21 0.72595982151915039 38 265 37 264
801 2.5242556582994164 1.3994063334192213 3.1242267818339569 255 255 255 1.2193414838623537 38 249 41 124 37 269
803 3.0113352382553931 -2.1852247065347865 2.0795019601409246 90 67 44 0.34282142331496468 43 146 37 274 36 296
804 2.8818968755465733 -1.2295969342518402 2.0494488882853088 230 180 164 1.6062536709546504 34 270 33 257 32 249 31 259 30 270 29 261 28 240 27 252 26 244 25 245 24 232 23 244 22 227 21 232
805 4.6881737668162593 1.6857925837945194 2.2559180127073826 146 122 98 1.5171766122099988 38 293 37 305 36 310 35 289
806 4.6755865571375415 1.6747439921055367 2.235168647416927 146 122 98 1.7699556662043607 38 294 37 306 36 311
808 3.7725706630493865 -1.0475271654688845 2.1989951828491665 214 168 133 1.2589893276837907 38 288 37 311 36 298
809 2.886522728499501 1.6256275376496083 2.4466316667305379 255 255 255 1.846793672987697 38 282 37 316 36 312 35 292 34 292 33 278 32 270 31 268 36 295 30 256 29 241 29 267 28 237 26 224 26 248 25 240 24 215 24 237 23 243 22 212 22 232 21 229 20 226 19 214 18 196 17 188 16 221 14 234 15 215 13 219 12 241 11 240 10 268 9 258 7 300
810 4.0683238681971403 1.7842579883698793 1.808438009610595 222 169 135 1.616761763334486 39 347 41 372 37 320 34 294 31 267 26 220 25 236 23 227 22 207 20 204 19 191 18 145 15 149
811 3.3130096408732403 -0.69151281519356089 2.4213059269100778 109 77 54 0.3989249868063931 38 305 37 324 36 308 35 285 34 288 33 274
812 4.0833612320310113 -0.875411673113348 2.6711706491363012 57 35 14 1.8616354559037631 38 316 37 334 36 318 35 283 34 253
813 3.0092456052169596 -0.13876737153952751 3.2166067081032175 10 8 6 1.058839130416257 33 309 32 298 31 309 29 296 28 282 30 309 27 290 26 282 25 278 24 267 23 278 20 261
814 3.3736474350720771 -0.10750968680171558 3.0982856765489126 241 188 146 1.3967771267574114 38 322 37 344 36 343 35 316
815 3.9195355098492479 -1.8468132974729083 2.1593560232706803 92 73 59 0.45428241063542268 38 329 37 350 36 350
817 4.0707126719737197 0.4229113977651115 1.9264582591368244 239 198 154 1.8284485532387926 38 334 39 373 37 356 36 356
818 3.455733811009527 0.83871709946544648 2.815896975591591 13 10 8 1.6034821747032315 29 303 28 290 27 298 26 291 25 288 24 277 23 288 22 266 21 273 20 268 19 254 18 243 17 254 16 279 15 278
819 4.7236187922693267 0.90093927194047208 1.9301139358245398 151 130 104 1.246136215470431 38 196 37 204 35 190
820 3.1326801640948192 -2.1333867848394239 1.9282363042354544 147 115 89 0.19379396926950263 37 10 36 10 35 15 34 7 33 13 32 14 31 13 30 15 29 78 28 71 27 66 26 3 25 55 24 2 23 2
821 3.7015561455942576 -2.0431575700423417 1.8963303751820144 98 78 57 0.19942378022376581 39 30 36 22 35 22 34 21 33 21
823 2.9382823104832849 -1.0180006656755405 2.3709629859561412 211 166 141 0.23038973515222236 37 64 36 58 35 104 34 150
824 3.8740577597236174 1.4783512056305861 1.9788380924534386 32 22 18 0.39144793096591413 40 75 36 72 33 121 32 123 30 130 27 177 26 91
825 3.4390576462716771 -2.1499132579019609 1.8763917111666053 132 104 79 0.52681686007957951 37 85 36 77 35 67 34 74 33 73 32 69 29 13
826 2.8460687637742503 -1.555589912188476 2.2662215726359949 189 142 116 0.38072976244267381 38 47 36 93 35 82 33 86 32 80 31 93 29 132 26 97 24 101 19 82 17 83 14 99 12 96 11 83 10 97 9 103 8 76 7 65 6 80 5 119 4 71 3 74 1 35
827 3.2495828655707655 -1.466862222170926 1.8821783767957116 97 60 40 0.19268083230456406 44 131 36 95 35 85 30 98 29 85
828 3.8087236326839844 -1.4446191330558733 2.043427665023466 123 58 41 0.20743998192679552 37 104 36 104 31 110 30 50
829 3.9563381250654892 -1.4390830600714932 2.0486298518036783 240 181 152 0.25020938654378738 37 107 36 108 35 97 34 105 33 100 32 98 31 112 30 108 29 97 28 45 27 38 26 35
830 2.5346156531304773 1.3718329241910396 3.1773759261053982 255 255 255 1.7521077235318419 38 154 36 119 35 155 34 240 32 194
831 3.9723776950905094 -1.5518506706710684 2.0803571690180065 231 168 134 1.7489467673432515 37 180 36 144 35 83
832 3.8901653538624066 -1.3422092446026908 2.0596837655167692 245 184 156 0.20101141339281525 37 186 36 187 35 172 34 171 33 166 32 171 31 177 28 132 27 132 26 103 25 103 24 82 22 73
833 3.9004205071594047 -1.3464931490871528 2.0772934217191512 245 184 156 0.12027143369043382 37 185 36 188 35 173
834 2.8482294395569556 -1.1587676931285513 2.0446108802139702 169 117 102 0.58372801664824014 37 191 36 192 35 177 34 202
835 3.0212908091683435 -0.30080453316513389 3.4988559591770789 16 12 9 0.4609226894026151 42 221 36 200 35 187 30 184 29 143 28 167 27 139
838 2.9750320389515763 -1.1881931113587105 2.0098930286179417 227 175 153 0.88678339590880573 37 234 36 234 35 220 34 199 33 200 32 212 31 213 30 210 29 167 28 160 27 156 26 105 25 73 24 80 23 33
839 3.1955788508966534 -0.35242833627116688 3.2791624502779322 11 7 4 0.14051080453846038 37 238 36 240
840 3.6205339861577981 -1.7273949616818465 1.8849556642823102 178 141 117 0.15069888183451982 37 248 36 255 35 246 34 227 33 225 32 225
841 3.7228723982634695 -1.3587407469030239 2.0352019635193335 239 199 165 0.089833015104760119 37 283 36 273 35 265
842 2.6215221346071234 1.486966802107992 2.8487952786161803 9 8 6 0.34706031323477976 37 296 36 293 35 280
843 4.3066788680134174 1.5808840948392913 1.9187806552378313 255 255 255 1.664393048939776 37 336 36 321 38 319
844 4.3066788680134147 1.5808840948392893 1.9187806552378268 255 255 255 1.6643930489397463 37 337 38 320 36 322
846 2.7008295524468204 -0.66874212367497587 2.5350267040085273 255 255 255 0.97580722192571778 37 359 36 357 35 328
847 3.4765364263634417 0.84581548186427058 2.8309832707479377 12 10 8 1.6677936147093468 30 315 29 304 28 291 27 299 26 292 25 289 24 278 23 289 22 267 21 274 20 269 19 255
849 3.0466136527956502 -2.0949932631469665 2.0049231348584655 215 168 143 0.62380510505907982 38 284 37 307 36 304 35 281 34 283 39 325 33 268 32 275 31 270 29 258 28 239 27 250 26 242 25 242 24 228 23 232 22 213 21 217
850 2.4697179580643831 1.3271129982899268 3.8089435929647513 255 255 255 0.97988207488810863 37 335 36 331 35 312
851 3.1503101853943618 -2.1736118660742738 1.9483482810191373 72 52 32 0.20877490728539946 37 9 35 12 34 71 33 9 32 66 31 72 30 88
852 3.1554253639797865 -1.5049137137661868 1.8901310299038518 190 141 120 0.25888260946313219 37 35 35 34 29 25 28 21 27 18 26 13 25 14 24 20 23 12 22 11 21 18 20 15 19 14 18 16 17 16
853 2.9420501029411739 -1.5062302528610418 2.0479303409939908 245 204 174 0.08906153281808063 36 37 35 38 34 29 33 30 31 92 30 33 28 26
854 2.942104012795812 -1.5063054013712907 2.0480564517116928 245 204 174 0.084757604104154421 36 38 35 39 34 30 33 29 31 91 30 32 28 25 27 23
855 2.8279199530285708 -1.5656130350149058 2.3100529056546102 182 137 110 1.1136383343004277 36 35 35 40 34 31 33 32 32 34 31 27 30 35 29 29 28 24 27 20 26 12 25 12 26 10 24 15 24 17 22 8 21 14 20 12 20 14 19 12 18 11 18 14 17 10 16 18 14 11 14 12 15 19 13 14 12 20 11 11 10 10 8 22 7 21 6 31 2 20
856 2.8262676316603437 -1.5652614509312666 2.3141504399561446 182 137 110 0.21945978818206341 36 36 35 41 34 32 33 31 32 35 31 26 30 34 29 30 28 23 27 19 26 11 24 16 22 7 21 13 20 13 19 11 18 13 17 9 16 17 14 10 15 18 13 13 12 19 11 10 10 9 8 21 7 20 6 30 2 19
857 2.8639069424842041 -1.4897548943895915 2.3036349445236932 82 57 40 0.52155418083580463 37 51 35 46 32 42 31 35 29 94 27 80 25 65 23 21 22 17 21 23 16 22 15 24 13 20
859 2.9459389838574319 -0.98280423241308812 2.2133353567975256 185 92 88 0.32179773749812934 36 60 35 55 34 53 33 109 32 112 31 126 30 121 29 113 28 112 27 105 25 84 24 89 23 94 22 79 21 102 20 102 19 64 18 84 17 70 16 77 14 79 15 75 13 79 12 77 11 60 8 89 7 82 6 98 5 95 4 88 3 98 2 93 1 62
860 3.2058686653699575 -2.1640638176999829 1.9031873443173424 81 61 41 0.84620978275665071 39 14 42 15 35 65 33 72 32 67 31 73
861 3.436161657029297 -2.0966385879234628 1.8292778883405441 156 125 99 0.032883243516113769 36 82 35 72
862 2.7836767503659754 -1.6415611888671451 2.3222733274632867 209 164 143 1.0409404515224585 37 34 35 80 33 133 30 228
863 3.8878540240743167 -1.6185631593847309 2.0445094303446716 71 51 36 0.12689709534836582 36 142 37 145 35 81
865 3.1796644048603957 -0.9789466742263474 2.0554977214049193 190 144 119 0.18129825499459479 36 57 35 103 34 112 32 110 30 119 27 103 26 85 25 82 24 91 22 80 21 74 20 42 19 66 18 62 17 32 16 45 14 37 15 41
866 3.9135433921239766 1.3220495340031484 1.9495437084075495 124 94 72 0.23078460688385563 36 120 35 110 34 122 33 119 32 121 29 118 28 117
