# 3D point list with one line of data per point:
#   POINT3D_ID, X, Y, Z, R, G, B, ERROR, TRACK[] as (IMAGE_ID, POINT2D_IDX)
# Number of points: 380, mean track length: 5.0589877323146988
5215 -0.59120701395885622 0.776616924255777 2.6326027348497196 245 226 132 0.091172590962012828 61 588 99 174
5217 -0.74580381198010315 1.2094004661740922 2.7300979541019785 123 149 70 0.40060567668114599 56 236 99 181 32 9 7 15 34 305
5219 -0.13742741348318604 0.44062570994605399 0.69329870867766197 193 168 100 0.90592152363373402 64 316 99 184
5220 -0.7248071698247589 1.2262399363648822 2.7268372904212566 78 118 52 0.16179433486249423 56 828 99 188 32 10 7 11 34 295
5222 -0.34398390915467963 0.27725323672534274 2.7198929392202773 53 99 44 0.19629660452852732 56 231 99 194 75 173 64 204 31 274
5223 -0.34480438447093154 0.27714578758956759 2.7239272811498156 53 99 44 0.18665189748240404 56 232 99 195 75 174
5225 -0.046812409436513144 -0.11273031682131616 1.7244608170503812 223 220 226 0.63440275203035301 16 690 99 201
5226 -0.70051732286166413 1.2439889992256381 2.7257797415851579 73 121 51 0.50173774671201976 56 280 99 204 7 9 34 285
5228 -0.22670008321428772 0.09198753606244664 2.7827499976891898 181 170 94 0.14081913113253383 56 255 99 216 7 542
5229 -0.39292272339469886 0.59463613770126278 2.6481942927332165 85 111 60 0.092396592521722096 64 354 99 217 45 213 79 457 49 188
5230 -0.33036409672012323 0.42707883517711864 2.6828193597396961 53 94 43 0.030907263117057961 69 450 99 219 75 177
5231 -0.46589806205573675 0.87011535488095193 2.6272219163801771 61 106 57 0.12163071245092827 83 574 99 229
5232 0.012064822526405816 -0.061972746644088215 1.6327086511194409 210 210 220 0.41235674872852601 56 340 64 31 99 231
5233 0.012475198454150004 -0.060685878758987399 1.6270239057590077 210 210 220 0.34529944059869888 64 30 99 232
5235 -0.61320725984769664 1.294632004263349 2.7239457232298503 91 140 60 1.0260172869580215 64 702 99 235 32 21 7 2 34 250 23 279 52 922 75 95 45 17
5236 -0.37756769354587372 0.73060461281242861 2.6316264545265344 213 198 121 0.062745452763158016 56 324 99 237
5237 -0.27992080326304863 0.51507743563471564 2.6664890609311782 167 150 89 0.084211268531058703 69 421 99 242
5239 -0.52694255508857502 1.2616742482508452 2.6886962358458031 110 188 93 0.29653366900764089 36 772 99 258 81 430
5241 -0.2262494004872817 0.48058653574172838 2.6776441472350867 127 123 69 0.12531629133270758 16 291 99 261
5242 -0.20880083607888947 0.44410215941538622 2.6876975615728358 178 156 92 0.089466212443905027 58 408 99 262 51 229
5245 -0.36587996838513559 1.1148013195164077 2.1850259369666105 238 221 141 0.50595016530600068 61 554 99 279
5246 -0.17301297573763569 0.4985823370810108 2.6731823104629067 55 92 44 0.016410008867344381 69 365 99 282
5251 -0.067422247469173996 0.32045795047028425 2.7302451490818007 56 87 44 0.17115416348137669 56 378 64 233 99 304
5252 -0.47427399659912639 1.1235588468071342 2.6495060161039876 0 0 0 0.099082845422731936 36 708 100 622
5254 -0.065256975333770631 0.45237125821981511 2.7074566648433618 146 141 83 0.076212951137855395 16 317 99 325 88 286
5255 -0.55989155095946819 0.99892149614994274 2.6406720671920882 0 0 0 0.059067324630787135 40 697 89 688
5258 -0.17128226878910532 0.87363158516773831 2.64880843428702 194 183 113 0.11861117647771194 56 439 99 345 32 256 38 320
5259 -0.28425561870911353 1.1905837645353288 2.6590435557608392 186 186 113 0.0041925698630074053 64 683 99 348
5261 0.2217228321470546 0.06494088069665431 1.4898109383681557 45 29 13 0.19845834075627217 56 514 64 92 99 369 32 959 7 604
5264 -0.12566271356079889 1.0166275696863376 2.6590917250529378 55 89 40 0.042865497618394803 69 318 99 389
5265 -0.22137645785954921 1.2761129321607294 2.6861257675188535 68 109 54 0.15820305725355951 18 686 99 390 7 38 75 235 51 140 41 102
5266 0.047506290035241372 0.58459628311955036 2.7236798903769603 147 141 98 0.12182345595096294 6 398 99 400
5267 0.010124449706560209 0.68904225801628016 2.6918477314911713 145 141 92 0.11674618666338792 56 497 99 402 32 376 7 312 51 307
5268 -0.0084100268993299969 0.74678307780883502 2.6899589187592028 114 118 77 0.04104932086285068 64 470 99 403
5269 -0.11700257735773315 1.0639304254967969 2.6625679057354619 172 172 96 0.079065689151842283 42 557 99 407
5270 -0.056622708074469917 0.90403911269508364 2.6641431714078849 79 100 52 0.15734020918713643 18 511 99 409 7 187 51 257
5271 0.14157431668290277 0.52041524466366684 2.7348346735954379 55 96 51 0.14721496785120455 56 517 99 433 7 409
5272 0.14129580710323725 0.52097850296033454 2.7333573344619388 55 96 51 0.14216183900787818 6 358 99 434 32 480 7 410
5274 0.027079324501268518 0.92406273750981383 2.6830494988993787 64 98 51 0.20355434950902193 56 552 99 447 5 186
5275 0.012602371317777219 1.0528452069474783 2.6862199525610939 51 81 36 0.43587825453384488 79 676 99 459
5276 0.012602371317777219 1.0528452069474783 2.6862199525610939 51 81 36 0.43587825453384488 79 677 99 460
5277 0.21431959531706127 0.55452893992943364 2.7637376984289741 169 163 95 0.063587815809221473 64 371 99 467 32 498
5278 0.13822914997890454 0.94397169275347403 2.1692811624111372 84 149 70 0.26212896263444713 16 559 99 514 88 409
5279 0.091772394769507493 1.1655605569764684 2.4402436663277292 12 9 6 0.00084243874400953935 100 1175 99 527
5280 0.42290228632470567 0.48905327093682505 2.045951213678316 156 155 168 0.16111392418762743 56 654 64 363 99 569 32 541 7 438
5281 0.46844274242695477 0.44791243677613152 1.7456949492347396 231 233 249 0.18786478174617804 56 681 99 586 32 572 7 474
5282 -0.87082617764072834 0.29007609553141156 2.5956590118326313 134 118 100 0.36741105802103746 16 764 99 607 88 738
5284 -0.76016464298043263 0.25183964719929136 2.5843193525159935 78 118 46 0.78199020401258679 6 192 99 628
5285 -0.86006617278167297 0.58004014532203108 2.6844703755152817 93 152 72 0.097603584859893719 18 1064 99 636
5286 -0.81214136181575214 0.48923805403071463 2.703498403419637 91 151 70 0.26440900621938423 56 730 64 909 99 642 31 454
5287 -0.78049285671708368 0.42227845584543072 2.7111458767608956 186 183 105 0.18689309139666602 56 1172 99 645 7 1218
5288 -0.79362622679746286 0.48605911829086546 2.6901562069164839 226 208 121 0.072599086117023523 16 825 99 647
5290 -0.72533377429948975 0.40969131741807674 2.6937395128663302 209 193 115 0.0061025805114213651 58 1293 99 657
5294 -0.46138807809287719 0.15482276802106254 2.7552084510623018 74 114 52 0.19746526610341489 64 818 69 1160 99 689
5296 -0.4846986599098328 0.62315149794390035 2.6338224727124278 225 205 120 0.32936101494563719 18 436 99 708 75 119
5297 -0.33197726051589815 0.27025985051688922 2.725917047950623 45 100 42 0.031139298821290021 16 821 99 722 75 551
5298 -0.46593927356700854 0.75334484510545086 2.6271874289431763 68 105 57 0.088972691907269127 56 838 99 733
5299 -0.40547588975713295 0.59022232105116457 2.6480212266889276 198 177 110 0.28214093884771907 98 1125 99 734 88 282 51 119
5300 -0.3459071162006262 0.45057549315867468 2.6706525072913427 57 98 45 0.11344755637138336 64 914 99 735 88 863
5301 -0.32585587175243652 0.44967265135964757 2.6764616071788883 74 99 49 0.15311063058277066 58 467 99 738 75 550
5302 -0.51776911737787423 0.98343486672345815 2.6327885735842043 87 142 71 0.072090998448953586 56 848 99 743
5303 -0.48820395715265313 0.96964150043239239 2.631155793002506 75 131 63 0.20056586909195309 16 982 99 748 7 712
5304 -0.48772693936436345 0.96923603649807821 2.6318709013030981 75 131 63 0.2735574224679479 16 983 99 749 65 1266 88 973
5307 -0.19612317990238645 0.33493141577542468 2.7169573706140961 193 168 100 0.17739308660646258 6 905 56 865 99 761 32 846 16 855
5308 0.047606884365873063 0.017065939660618569 1.716643607491724 154 151 106 0.14495841102891283 56 1336 99 767 32 1249 7 1351
5310 0.13591614252020393 -0.034915160990094077 1.5284327343235824 230 195 139 0.24428760490305773 56 418 99 787 32 957 7 1035
5311 -0.44089168369475018 1.3265330054261673 2.6962960858477003 225 221 150 0.17365314190249787 18 1255 99 793 7 6 32 37
5314 -0.38281012279933158 1.3507414253247449 2.6910082318857036 221 220 144 0.044843003666440708 6 1196 99 822
5316 -0.29498425555348978 1.1688389424968932 2.6517152521741769 65 115 53 0.11214704234675904 40 1399 79 1316 99 831 88 1037
5318 -0.22662070944304577 1.0818639340786089 2.6482520324076342 64 104 52 0.13448477877046891 18 1180 99 847 38 757 87 610 16 1046
5319 0.22174965850977302 0.055707785970229309 1.4899151282635532 224 203 174 0.36364724915255064 64 770 99 852 32 961 7 1024
5320 0.25225042703627615 0.09935993696434503 1.5121181539957029 81 57 36 0.25188681074071834 18 54 99 872
5321 0.28998544791947517 0.1263007124798346 1.5246258188391977 253 251 233 0.39742270069857538 56 568 64 131 99 889 32 964 7 1345
5325 0.097630304392443634 0.79191632242347576 2.7057220796916535 170 157 100 0.044271128644873523 83 373 99 907
5326 -0.1121383244354676 1.3920685505869561 2.726602728598245 254 254 254 1.2956314414157546 36 1845 98 783 99 909
5327 0.50106868116518621 0.47774138547125111 1.8081671772009291 186 184 191 1.5742152134421186 56 1130 99 977 7 460
5328 -0.77594444142666819 0.68908584272840823 2.6682508981542634 93 157 75 0.090081017291688242 56 1192 99 1014
5331 -0.79723194880173742 1.1888693651654287 2.7432935380183845 188 195 123 1.2706416392747537 56 1709 99 1054 7 1539 34 1536 43 723
5333 -0.5915032711963405 0.81327259055361434 2.6342932773672718 84 145 69 0.16566645286845846 69 1608 99 1063
5334 -0.33732649692608474 0.10870597658523715 2.7757401706272553 72 95 44 0.31166049629919601 56 1239 99 1065 87 101 55 630
5337 -0.2180752098437847 0.028756469849109546 2.6034637354982642 179 176 184 0.72011902690472029 56 1831 99 1079 7 1521
5339 -0.44463920537029217 0.69265336894188734 2.6338509701557662 70 106 57 0.28249292823282962 89 1825 99 1092 32 1074 65 1784 31 727 75 771 51 787 66 580
5342 -0.3385620135146481 0.9500443038545322 2.6306362425097398 230 213 134 0.20213256881104008 61 1749 99 1139 32 1058 88 1331 75 794
5343 -0.31309213121954776 0.88988041649274607 2.6302885955079707 239 226 139 0.19701644093323636 36 1727 99 1140 32 1073
5346 -0.21160543529837933 1.0134023738501559 2.6449837337255655 60 100 51 0.025950715392004161 6 1527 79 1719 99 1176
5348 -0.30976396932470129 1.4273198300498269 2.6788458779903244 190 203 116 0.11421285985349976 56 1386 64 1562 99 1199
5349 -0.10477754987355185 1.0019103993458245 2.6717075629996532 54 88 39 0.12043617889935458 56 1396 99 1216 7 1108
5350 0.20611489604201833 0.23728581525767692 1.7380689465591701 88 166 92 0.12622887405856259 56 1416 99 1218
5351 0.029040897925380529 0.64572589743879449 2.7116514246035504 43 90 49 0.051786819475251974 6 1427 99 1222
5352 0.15579340363034333 0.46265284549326147 2.7655102875335706 190 179 107 0.17186227584599195 56 1403 64 1365 99 1239 32 1227 7 1283
5353 0.1560353674496929 0.46238476403978307 2.7756702091314565 190 179 107 0.080995907851052054 56 1404 64 1364 99 1240
5354 0.063931744699373128 0.78788401107925587 2.6917275434590793 50 98 49 0.15852190390858345 18 1494 99 1246
5356 0.28336776592554519 0.58027360329044397 2.7511634293975114 63 111 54 0.66518561289708311 56 1441 99 1276 7 1262
5358 -0.93972452971459908 0.33342193928757391 2.6694165246349857 255 255 253 1.5032961896156281 16 1709 99 1310 88 1185
5359 -0.71176144561025889 0.16597092729792529 2.238963329088663 252 240 223 0.10490414150892624 56 1501 99 1313 7 1493
5360 -0.62608102661899789 0.16485517503963928 2.755789961677471 69 114 50 0.30395044997603288 6 1626 98 1820 99 1334
5362 -0.67708638610364225 0.48342048171232738 2.6736641737658866 122 142 75 0.17159644900324583 56 1526 99 1342 7 1454 88 1221
5363 -0.6752741369984403 0.9095540294029083 2.6422205308928346 100 165 80 0.24897523424242199 56 1549 99 1356 32 1292 7 1395 45 827
5364 -0.21512766204635667 -0.016656323910935189 2.3116367787141092 76 138 69 1.324628751859535 56 1249 99 1366 32 1224 7 1342
5365 -0.6323505875638008 0.95298905723904992 2.6480377280675178 86 156 74 0.070515906313080079 56 1559 99 1367
5366 -0.55667170649654252 0.83941557010609114 2.6315210689043944 121 151 80 0.27883287342833435 56 1565 99 1372 43 1056
5367 -0.36043476279775016 0.37815105255343268 2.691022871599253 51 98 44 0.22776023201879925 64 1637 99 1373 7 1487 75 1007
5368 -0.21448061471893878 0.19587674652000819 2.7218153030407284 116 114 61 0.4743099767602435 56 1725 64 1611 99 1384
5370 -0.48912337595167482 1.1759995428768737 2.657695660643062 95 173 81 0.40891653754029111 56 1587 99 1399 32 1291 75 991
5371 0.044164061038971685 0.059923544592066093 1.7560491793875777 156 161 113 0.48639325197759703 56 1752 99 1401 32 1444 7 1526
5372 -0.40361670776871694 1.2574463512012064 2.6751841180756886 89 167 78 0.14237142273608791 64 1777 99 1412 56 1600
5373 -0.17357090154880239 0.65324057383373058 2.6642438404610935 122 120 74 0.14529433017486384 79 1952 99 1413
5374 -0.19850694423184589 0.77435259788043753 2.6510958096043313 43 78 40 0.21188482351127555 16 1612 99 1416 32 1363 7 1432 45 1113 31 923 51 1025 66 714
5376 -0.0093539597703424533 0.46661888377289146 2.7166386236796485 118 125 74 0.072000710007071714 36 1593 99 1426 32 1415
5378 0.21930173966971012 0.15273229639896835 1.6619181463657571 62 124 70 0.30188472698620944 56 1782 99 1441 7 1523
5379 -0.29475791690768871 1.5065941177315973 2.7339015441814447 0 0 0 1.3574150524943516 56 1635 64 1797 99 1446 75 1334
5380 0.083763424472951944 0.53273751809922931 2.7326682522783448 45 93 50 0.24391972007887572 64 1677 69 1764 99 1448
5381 0.27326695697336167 0.50368133240383761 2.600648595303523 73 145 77 0.58080121937782903 56 1653 64 1676 99 1470
5382 -0.85704195083845447 0.50415629193803457 2.7012230239241544 190 190 105 0.25444796546019433 16 1545 99 1503 32 1488 7 1582 31 885
5383 -0.61053270828117312 0.13953816961979038 2.7704789456479779 176 155 86 0.12693511880589353 6 1838 99 1512
5384 -0.52663307483947042 0.14601992889675003 2.7615296051830636 61 113 50 0.64958382611003362 18 1925 56 1695 99 1518 43 1620 12 1245 23 1423 93 1174 73 985 22 614 76 511 86 599 17 612
5385 -0.46966645973754756 0.058528477591714666 2.7938765181816283 61 109 47 0.59297779474423828 98 2036 99 1521 75 1134
5387 -0.49645795423068739 0.268145422690094 2.7202393748788265 65 109 50 0.38342347537689325 56 1704 99 1525 32 1527 7 1621 43 1514 12 1232 45 1289 93 1166 31 1060 51 1128 37 681 4 659
5388 -0.64272815207303435 0.71720214081184797 2.6329280101371415 81 136 67 0.34611811717760865 56 1705 99 1527 64 1982 32 1490 45 1232 7 1569
5392 -0.4520553825231528 1.0381581759997738 2.6366355768412868 253 244 152 0.24939863431280862 56 1740 99 1567 32 1489 7 1552 45 1214 75 1131 31 866 51 1117 49 919 33 701 66 675
5393 -0.62432443227549661 1.0899205869440431 2.6623549879642758 243 233 156 0.10534463890077572 36 2299 42 2347 47 2217
5395 0.07909507086284949 -0.021498599255320175 1.5612166363350992 90 76 58 0.2719289928233512 56 1753 64 1805 99 1570
5396 0.081019706254592691 -0.022103618648585451 1.5648807393352442 90 76 58 0.73481786795351722 56 1754 64 1806 99 1571 32 1455 7 1533
5397 -0.42548853149301535 1.087416956330139 2.6405856855082046 71 131 62 0.062128778162318932 56 1746 64 1931 99 1574
5399 -0.2710581390875077 1.2179001911592595 2.6617136454488737 251 246 157 0.19226765997949177 16 1817 99 1593 88 1741 75 1026
5400 0.24048758553106944 0.084095323779330614 1.4969679835933922 228 185 122 0.75464444183902624 56 1783 64 1815 99 1595 32 1648 7 1705
5402 0.27097438988656702 0.53595798723604093 2.5870102009754392 177 184 197 0.047384944210351172 56 1864 64 1976 99 1629
5404 -0.49662422698585129 1.0962569232699637 2.6457529550154693 206 210 127 0.6129698948395963 64 2001 99 1662 88 1815 48 1418
5405 -0.073759476791909542 0.25260677723949376 2.7541309516277201 43 81 38 0.38668009327796077 56 1842 64 1952 99 1665
5407 -0.96157673471981786 0.53714303142320519 2.7231309333214755 0 0 0 0.81049412368846108 36 2491 40 2434 79 2358 56 1880
5409 -0.50202005054864884 0.73266987874595035 2.6330578470930841 133 144 83 0.43254578196556065 6 2062 99 1725 7 1719
5411 -0.25328112258984575 0.49829140536025746 2.6649089113653228 95 108 58 0.11649612523572191 69 2242 99 1731 31 1175
5412 -0.34531333219921428 1.1627608928055075 2.6151736351557662 119 152 78 0.8515195217235163 56 1902 98 2296 99 1735 32 1658 64 2044
5413 -0.60553283510252232 0.29440426858271118 2.7454573310094013 117 128 69 1.179607763616751 56 1936 99 1758 32 1695
5414 -0.098303772494469852 0.64763240824677681 2.6729045862424416 42 87 45 0.74189160342360516 56 1904 64 2026 99 1767 32 1704 7 1725 34 1894 43 1583 12 1291 45 1389 75 1309 31 1204 51 1308
5415 -0.10063279242088026 0.65136691203000485 2.689009711503175 42 87 45 1.429906308821089 56 1905 64 2027 99 1768 32 1703 50 2286 77 2337 45 1388 75 1310 31 1203 51 1309
5417 -0.53614806597275488 0.22244458621163485 2.7315389299609865 183 157 91 0.55876921956480696 56 1956 64 2083 99 1777 32 1734 7 1799 69 2345 31 1232 51 1327 75 1319
5418 -0.51450182044748649 0.56981162496205195 2.679753504167238 65 107 53 0.79092279398569121 56 1999 64 2137 99 1819 32 1773 7 1843
5419 -0.51608683273279121 0.57081721035156541 2.69513558733115 65 107 53 0.73644395724436384 56 2000 64 2138 99 1820 32 1774 7 1842 83 2777
5420 0.20756953022962935 0.19940035042883933 1.6942105747130063 152 173 116 0.99843817992121942 56 2035 64 2115 99 1859 32 1809 7 1864
5421 0.23095612918158884 0.59509951167709763 2.7698437469000838 65 101 53 0.14907778690141701 56 2043 64 2147 99 1864
5422 -0.31204905251491422 0.75984360410739349 2.6362140990181073 74 114 61 0.17936987457850137 64 465 40 537 56 357 99 267 69 428 58 428 32 232 7 218 75 181 18 470
5423 -0.24377467106825618 0.66702137839506326 2.6510770734797013 43 62 32 0.1147310800325303 69 399 36 457 99 275 58 398 98 483 7 261 45 192 49 179
5424 -0.16348170258976263 0.99261933097217059 2.6518992413190241 35 61 30 0.11456762481387364 6 609 36 588 99 374 79 657 83 503 7 126 31 111 51 197
5425 -0.23014450676214751 0.88597740619580667 2.6420057467888483 56 101 54 0.1538785139230367 6 567 18 526 69 390 98 587 99 320 64 540 40 591 32 230 7 165 88 422 38 314 75 208 31 125 51 169 79 599
5426 -0.16550636723384393 0.93986041464057402 2.6510107700815917 40 59 30 0.15412363306431251 69 349 18 544 99 361 42 511 79 626 32 240 38 336 88 474
5428 -0.23736625885161938 0.95398803304521551 2.6411712038341779 59 106 53 0.16846994593952094 69 1060 6 1100 98 1214 56 943 79 1268 36 1248 99 813 40 1334 61 1232 7 732 88 987 45 556 31 483 51 575 16 1382 66 362
5429 0.095717111472252883 0.60410515693857847 2.7229850505684356 27 55 29 0.22511169310895074 6 984 56 1006 99 893 18 344 64 988 7 870 45 656
5431 -0.20521817902491729 0.97818396945490071 2.6450984498425538 101 123 69 0.1723653153947112 6 1755 18 1824 98 1921 16 1633 99 1424 36 2075 83 2156 61 2110 69 1800 64 1748 56 1614 79 1999 40 2076 89 1793 58 1555 7 1405 50 1471 88 1572 75 1036 51 1019 45 829 66 573
5432 -0.55348529355364029 0.055757283065319949 2.2196838280666151 62 110 59 0.24484911303895512 69 1589 6 1255 18 1341 98 1422 64 1226 56 1174 83 1681 89 1187 58 1674 99 996 79 949 36 973 40 1030 16 713 61 1046 42 1022 32 1134 7 1313 31 760 75 728 51 766 45 1031 66 599 49 617 59 368
5433 -0.19375574913382235 0.14216783048349899 2.7771293678914688 48 86 38 0.43196662506140765 18 871 16 810 99 1110 79 2117 40 2201 61 2029 69 1498 18 1361 64 1267 56 1278 83 1679 100 404 92 1070 89 1744 58 1602 58 1931 32 1426 7 1511 50 1551 88 185 43 1112 12 924 87 132 76 589 9 455 21 412 44 446 57 215 85 342 20 339 95 230 8 208 35 338 62 389 80 364 84 178
5434 -0.35074498907515261 0.91949386176307746 2.6307599312308025 223 210 133 0.26076549906935248 69 1535 6 1506 98 1622 64 1495 99 1137 18 1549 56 1326 79 1696 36 1743 40 1747 7 1106 88 1328 16 1366
5435 -0.40450467058995798 0.81402582302150461 2.6254667176489428 67 111 61 0.19545621881144029 36 2064 61 2105 99 1389 6 1725 98 1909 40 2060
5436 -0.19666327914275064 1.2638376162003433 2.6794261150173844 89 119 68 1.0739715185441208 6 2135 98 2373 79 2464 36 2544 16 2023 61 2611 42 2543 100 2406 99 1796 69 2290 89 2686 88 1989
5438 -0.51078075967471814 0.050095562811654892 2.23582665344279 151 192 116 1.9985103790008099 69 1155 6 1602 98 1786 64 1228 56 1512 83 1673 99 1330 6 1825 18 1908 98 2022 64 1811 79 2104 40 2185 83 2092 16 1699 99 1507 32 1387 32 1541 7 1314 7 1632 88 1641 100 2126 31 762 51 1109 75 1214 66 716
5439 -0.15138562204059761 0.52420668531751979 2.6804218023473005 68 96 51 0.027630702244564698 56 379 99 301 51 252
5440 0.46844274242695477 0.44791243677613152 1.7456949492347396 231 233 249 0.18786478174617804 56 682 99 587 32 571 7 473
5441 -0.54503039770589423 0.35233456984345596 2.6434229986320572 106 123 66 0.23221407656815857 98 1068 99 683
5442 -0.59489454574069289 0.52096417187274335 2.6646623712850706 79 117 59 0.063330703166419894 64 931 99 687 45 639
5443 -0.43864181718337802 0.36825461354051697 2.6958118363887587 186 163 97 0.16752690216156096 56 801 99 702 32 775 75 527 93 605
5444 -0.094377798860641834 0.74894893776379867 2.665350252785982 43 84 43 0.061872099939645951 6 1456 99 1182 32 1139
5445 -0.93715598150935775 1.0223317593048427 2.7348268767714914 200 197 118 0.27065060301129396 99 87 32 0 7 47 56 757 12 174 45 48
5446 -0.84995088442271793 1.1247582311027573 2.7325412803241127 72 119 52 0.18516500260198201 99 131 32 2 7 26 45 38
5447 -0.85291220191812323 0.99556196585695556 2.6971343348947476 197 201 124 0.19822474742209373 18 1204 32 13 7 57
5448 -1.1534517199373904 0.59667826743802588 2.7687538787984054 141 175 94 0.31675348885368904 99 5 32 14 7 752 51 0 33 186
5449 -0.64135015367925718 1.2775092205028256 2.7178388542636909 74 126 54 0.75444616160898725 64 695 32 16 34 254 34 255
5450 -0.54131688612260087 1.2091748357558034 2.6741677300011011 223 218 143 0.31699328386722836 61 1375 32 32 38 364 48 331
5452 -0.25961067959920553 1.4081910155071415 2.7076281582182262 91 161 72 0.072126283631650023 6 747 56 513 32 68
5454 -0.40109010557107538 1.0645582881696074 2.6379917517947349 71 123 58 0.2256165536748331 18 631 32 92 88 489 38 338 33 77 12 96
5455 -0.96269297008941046 0.27292380403584476 2.6779418060411371 123 92 62 0.1661372361382836 64 176 32 100 7 862
5456 -0.31179552012787726 1.157929207704177 2.6524847852139533 69 120 56 0.019426516777590504 79 732 32 105
5458 -0.15342375657102314 1.3921172226727974 2.7331368383784227 87 126 54 0.18572531058508679 58 300 32 111
5459 -0.17530008052259086 1.3566528882517499 2.7192294617118873 61 101 54 0.57884001252567752 56 540 32 115 88 1077 11 1018 81 1159 70 595
5460 -0.31851385107851976 1.1290601472396191 2.6450939125226101 71 119 55 0.086938117419821506 40 737 32 117
5461 -0.67619662378485335 0.58036530831033561 2.6622764230657912 229 210 124 0.026362072493767558 18 439 56 126 32 135
5464 -0.57509700776368466 0.68723380238296494 2.6401441939092649 74 116 60 0.01140275510245633 18 464 32 143
5465 -0.46874421645341641 0.81752676778666289 2.6231838046195972 237 218 138 0.15380483937262268 16 390 56 293 99 220 32 147
5467 -0.40526263785236311 0.86471539761070959 2.6285083540669247 59 99 52 0.21447473317167493 64 525 79 603 89 583 32 153 75 140 16 436 31 69
5468 -0.49578637270496512 0.7025640228531792 2.6341890691829879 54 93 50 0.050601769664012058 58 549 32 167
5469 -0.74484535319965028 0.3681105995500229 2.7106757058459361 83 143 63 0.14998454696836272 99 65 32 170 31 134 66 89
5470 -0.66287253631298415 0.45159202787410763 2.6813619835347686 220 202 121 0.083586197396018636 36 446 32 172 49 224
5471 -0.46636554460681423 0.71123329087267462 2.6332010205702381 58 97 53 0.052304795837902832 83 529 32 175
5472 -0.64317382855265326 0.47120433306451337 2.6765262790969979 228 209 126 0.078183774173551698 16 218 32 176
5475 -0.34503235440269658 0.29771551595858348 0.72267191228852024 118 135 72 2.5615128425332045 64 177 32 184
5481 -0.39276808277494835 0.5945861100927099 2.6479492039318102 79 102 53 0.11424787064571425 89 551 32 244 45 214 79 458 49 189
5482 -0.22186310752870117 0.82809126216568019 2.64311538555482 48 80 42 0.069990659493596202 18 1094 32 246 49 133 66 93
5483 -0.69769480088076408 0.064919083132733729 2.2880950990152691 2 2 2 0.032394418147245106 18 181 32 252
5487 -0.020679135800038644 0.6196346544281679 0.74660461319520532 61 96 44 1.6639567587859119 64 512 32 263
5488 -0.18734169991707356 0.78896803588293207 2.6504028998800475 49 81 40 0.084652664878351852 79 550 32 274
5489 -0.48933210147960959 0.36688622829837009 2.6919316692679645 172 156 93 0.038944044552952202 58 591 32 279 45 323
5492 -0.29173142614037423 0.56652336951919602 2.6489216251415915 177 158 99 0.088717851561028363 99 248 32 299
5493 -0.29243980356306348 0.56713753726533445 2.6537002867607646 177 158 99 0.077178545215894553 58 443 69 426 32 300
5496 -0.27127754471528376 0.58860937069898245 2.6550601389586443 179 161 102 0.18020718577897549 6 395 32 309 51 179 75 194
5497 -0.1132832462505951 0.74267789793950334 2.663490996409668 42 78 41 0.12968997777605637 6 487 32 317 51 247 66 138 99 353 16 439
5501 -0.10246835201892782 0.72524016958993021 2.6705490031439942 45 80 42 0.013544628163145656 69 313 32 326
5504 -0.72475651431833699 0.97050869957595554 2.6608505693533413 89 142 75 0.15206587027744975 79 689 92 622 63 539 88 384
5509 -0.21518124644723027 0.47302564150490295 2.678194773908968 67 95 47 0.072805251981536923 69 393 32 360
5510 -0.50238046398143021 0.042433555175325578 2.8561790584619806 153 169 99 0.013669000908404876 64 779 32 367
5511 -0.14245616204749861 0.51297248910992554 2.6829132819434927 172 156 99 0.1407204586704292 69 347 32 368 7 376 75 265 45 280 31 256 51 259
5512 -0.46201411002502735 0.0055762750488090474 2.2318541187706415 83 143 68 0.32832400950329921 18 132 32 369 7 539 31 234 45 424
5513 0.18640802507589821 0.87316766092343712 2.4003423309888006 117 139 63 0.55822007198816548 64 574 31 208
5514 -0.47362431319145276 -0.064740127847704138 2.2315358974188904 64 96 44 0.38807434834519011 56 65 32 385 58 537 33 258 22 47 37 41 49 326
5515 0.056583061498676722 0.72051867189352337 2.7008330356543864 173 163 112 0.17239487543627011 18 415 56 519 32 389 7 297
5516 -0.46473627439065146 -0.059449525713133625 2.2318381062243344 248 225 135 0.084380488482327834 69 489 32 390 7 563
5518 -0.058957346656347352 0.52665107418645318 2.6995092390919195 60 98 51 0.08765051393914447 56 421 99 339 32 404 75 304
5520 0.245321568097295 0.79584625048835778 1.6438936328197089 1 1 1 2.6144171782700498 18 377 32 409
5523 -0.38186239725420346 -0.05239674363004259 2.2655529270789194 218 212 211 0.28701257893460363 99 668 32 427 31 589
5526 -0.10516809062072971 0.3297449873432704 2.7285366280962151 62 94 44 0.068587353686007699 32 436 7 469 99 289
5528 0.19001103083737045 0.68836309027464859 2.738581560425827 72 97 54 0.02188362165489114 99 481 32 450
5530 -0.3154664639051093 -0.018338943198749545 2.8321089548769094 62 78 37 0.1467097520914854 64 75 32 456 7 568
5532 -0.072320095614589311 0.28688870320762244 2.7462017272083732 59 84 43 0.033604737849223784 18 234 32 462
5533 -0.37895280013453975 0.97950684981743674 2.6328004533495593 70 111 55 0.4606047780802735 56 364 79 670 7 98 87 208 10 214 48 273
5534 -0.32707056457777628 -0.16322389354970609 2.2555944299223474 231 209 164 0.074321300279043587 69 417 32 487 7 623
5538 0.40123193566311294 0.6269545199577885 2.1893047848209179 225 170 128 0.13268673480497245 56 664 64 448 32 516
5540 0.064516006362331457 0.013403453476365729 1.7037997379698306 124 140 94 0.1304414297481693 56 916 64 68 32 539
5541 0.35520981130380042 0.31475395958755786 1.7425975613892084 68 110 64 0.25719594565026466 99 508 32 561 7 518
5542 0.19643309942382842 0.10546238156813002 1.5091352381793486 254 246 229 0.17002338794348648 56 1001 99 849 32 565 64 118
5543 0.044816147013743354 -0.13910448422246852 1.82708853785013 250 238 189 0.26614999685548424 32 573 7 642
5545 -0.90091060196782602 0.74353371958759207 2.6786530814179015 112 188 89 0.23441537291672232 56 733 64 1009 32 601
5546 -0.40588613120090405 1.424792732405352 2.728475306658563 173 193 112 0.29042442812862224 56 1363 32 609 64 1190 7 1042
5547 -0.45672811291118354 1.3277943692182417 2.6938714626701992 204 209 139 0.11436029518744979 56 921 32 611 7 652 64 1552
5548 -0.29530623482577661 1.5082898505711539 2.8330427062463612 131 179 102 0.32335133104622305 56 1401 64 1564 32 625
5549 -0.49877025887026943 1.1379190329191506 2.6508907229121843 234 229 149 0.15476192048358162 69 1154 32 628
5550 -0.35580411208898571 1.3174837728422053 2.6776059808751587 219 218 145 0.15975978345026151 64 1184 32 632 7 656
5552 -0.3663776866928351 1.2647948990493307 2.6676359046418607 218 214 140 0.157958506238327 98 1319 32 637 81 844 74 812 75 544
5553 -0.79306686587396524 0.57623300704771074 2.6753139957847361 111 154 76 0.8059239680125736 64 945 32 650 65 1860 58 1749 34 953 43 830
5554 -0.58949719787454946 0.81539730273587008 2.6333015530366759 75 131 64 0.1939085534117076 18 1117 42 1247 56 813 32 655 50 1149 31 431 49 474
5557 -0.3250391091394515 0.6664045513587934 1.5065474344551242 55 96 52 0.97612288084215582 92 909 32 682
5558 -0.44593313521225048 0.85582060638276869 2.6267585547305741 55 96 52 0.1953627196890681 98 1204 32 683 34 276 75 522
5561 -0.44998167949940199 0.55761638184501694 2.6604999947232391 68 100 51 0.14317510699913696 18 1026 32 740 7 829
5564 -0.58224362652622086 0.20203040794728522 2.7405681821031664 181 157 91 0.10719681408670514 98 1016 99 667 32 771 93 651
5565 -0.50867419597296493 0.28513219777852084 2.7041850429446792 64 102 48 0.14751726182328034 56 777 32 774
5569 0.10506304111500103 0.93244921018585081 2.1644109424328284 127 161 80 0.25617433426674069 64 613 32 789 56 603
5574 0.010825562061223317 0.66558962964364965 2.6920851747649959 46 93 50 0.091890790819255025 16 960 32 836
5576 0.13834166686953678 0.78439405029656017 2.7224372740637803 71 98 52 0.034101413038455645 69 940 32 847
5577 -0.081894843834949313 0.47499042260753099 2.699869452738592 56 98 49 0.24102840034349216 18 963 32 849
5578 -0.35739773909111783 -0.0091278372150457553 2.8339684420161131 47 76 33 0.13267825308357081 56 781 32 863 7 1002
5580 0.19874712264411856 0.45786778686687857 2.2551111358438343 195 177 111 0.015205676473551526 100 1012 71 926
5581 0.37120918910829287 0.63286749815910082 2.5457493391687236 181 182 193 0.135114744801445 56 1470 32 918 64 1708
5582 0.35370611638640631 0.60828936450541549 2.538069340905786 168 169 178 0.16222552260036577 64 1699 32 919 56 1463 7 902
5583 0.085574259321448479 0.04900906660602531 1.6960192076628906 69 128 69 0.11899637167504475 56 931 32 932 7 1012
5584 0.24915642860511625 0.15822727196921829 1.5578534132224822 98 91 45 0.315982387519949 56 1423 32 954 64 1265 7 1004
5585 0.22174965850977302 0.055707785970229309 1.4899151282635532 198 174 146 0.36364724915255064 64 769 99 851 32 962 7 1025
5586 -0.76265989253395194 1.1467403064035433 2.7099500936695819 198 201 134 0.94211798560315874 18 2011 32 967 7 1056 34 1232
5587 -0.55453774765077224 1.2835587676001683 2.7161924873640615 106 195 97 0.44022895364973769 56 1313 32 972 7 1047
5590 -0.93981085239670281 0.41718461100203247 2.768891156602638 41 85 29 0.64223098841387272 69 1931 32 1013 50 1690 88 1491 79 2148
5591 -0.58679024139102265 0.94759251541811862 3.0525307686623209 70 124 59 0.4947884656092062 92 1758 32 1024
5592 -0.55249511878352775 0.72718163385811918 2.634427564505545 181 182 106 0.13341596561892666 16 1296 32 1045
5594 -0.40365492761789068 0.81371372027372324 2.6310099954443986 53 93 50 0.15231419074975819 58 1613 32 1066 7 1128 47 1653 45 860 69 1547
5595 -0.40939153939683032 0.68069186681373994 2.6368324840994988 129 133 76 0.83932042738718304 36 1683 32 1087 47 1201 42 1703 45 891
5596 -0.69732674342987067 0.23653514316109495 2.7346413209489775 169 153 89 0.14132669600263256 6 1299 64 1278 32 1094 56 1173
5597 0.029550351722691486 1.1027877188610082 2.2098055862127417 141 104 73 0.25753260092105007 64 1775 32 1098 56 1660
5598 -0.34214081102546651 0.6038540511624273 2.646089856545037 61 91 49 0.24995682618129844 69 1536 32 1106 50 1101 49 560
5599 -0.60791168487211555 0.14273506727947766 2.7675251710802171 160 144 78 0.11614201267312989 56 1515 64 1590 32 1125
5604 -0.49369547719783385 0.040675743798548339 2.2492363151885977 170 214 134 1.2386322753091514 56 1188 32 1151 75 735 31 777
5605 0.046675545881822281 0.7966843757455716 2.6924147996316239 105 118 70 0.29755457138990898 69 1416 32 1160 51 915
5606 -0.28551039417844543 0.22006367453878994 2.7219284897949629 53 92 40 0.27648612085241286 99 1088 32 1171
5609 -0.20855377328305311 0.30469423189361616 2.7246414304703164 185 162 94 0.10864039013342633 18 1388 58 1592 32 1177 7 1289 56 1286 50 1531 47 1639 45 1024 75 842
5610 -0.3902369541590503 -0.023737211304510737 2.8585863085159486 49 85 39 0.12756456695869725 56 1206 64 1221 32 1185
5611 0.22915753899424104 0.75773599802325187 2.2449568749491045 198 183 149 0.27093723948659987 6 1037 32 1190
5612 0.2942644373850814 0.82590440343401916 2.1794754786590991 66 116 56 0.26985238511421455 56 1478 32 1197 7 797
5614 0.35443585090116558 0.65010600814304109 2.2202623217166311 83 73 44 0.096396503882055715 64 1453 99 1296 32 1231
5615 0.047848769956009313 0.017171667644561888 1.71447369039609 147 153 105 0.2015715694512337 99 768 32 1250
5617 0.39500558221534549 0.30225136697343141 1.7724596303163371 255 255 255 1.5746367936454118 99 1285 32 1264 7 1320
5618 -0.8067913939322513 0.89586133760114905 2.6722971556906372 217 206 128 0.1889335150381205 99 1344 32 1275 7 1553 45 1090
5619 -0.97539934157030594 0.42958925307422952 2.7695482066989459 156 141 80 0.5579048289650127 16 1202 32 1304 7 1591 45 1263 75 717 51 748
5620 -0.65234574085852604 0.79110194827280533 2.6406707694008285 144 165 92 0.39373655318490758 99 1352 32 1305 65 2142 45 1102 51 969 33 736
5621 -0.4253261266335327 1.0887112665403724 2.6392761505532709 75 136 63 0.017913452782949511 18 1851 32 1306
5622 -0.2705481054008485 1.2181328201775146 2.6626327294219312 250 242 157 0.18362937177795988 6 1939 32 1317 38 1360 48 1330
5624 -0.014329242431607107 1.0892293053367366 2.2075710859627291 124 105 73 0.17886361581977431 56 1655 64 1773 32 1346
5625 -0.0101151906404009 1.0616784814090321 2.190764012855352 251 239 201 0.27995774914312516 56 1436 64 1535 32 1350
5626 0.084938118791797079 1.0029949633622226 2.1913169954617699 250 235 217 0.67889136711094922 16 1648 32 1372 7 1402 31 716 75 1062 49 710 66 553 14 34 26 180 78 200
5628 -0.48011928826791517 0.21585359771275647 2.7371882004711652 60 109 48 0.23972044168480042 64 1608 32 1385 12 1237 43 1364 93 1169 31 949 51 1006 37 602
5629 -0.19007772891978206 0.28589896903855944 2.731062481085718 48 90 39 0.080915176989553153 99 1392 32 1408
5630 -0.19007772891978206 0.28589896903855944 2.731062481085718 48 90 39 0.080915176989553153 99 1393 32 1409
5631 0.32834839683464062 0.63057353965225282 2.7388242374325902 88 96 44 0.3956527539268605 56 1664 32 1438 64 1889 7 1480
5632 0.23068700042844864 0.13141275712626319 1.52549641468734 60 46 36 0.34419680459610624 56 1785 64 1819 32 1459 7 1525
5633 0.17586817164580662 0.046667490040072 1.5374324396874923 56 36 17 0.28809164364172024 56 1618 64 1577 32 1461
5634 -0.73783739577978813 0.49821509506789136 2.6830069526089653 81 122 60 0.21599205111406417 99 1511 32 1493
5636 -0.64167555083032035 1.1140291234943915 2.6703644076587021 82 143 77 0.29995308188533892 79 2215 92 2208 63 2131
5638 -0.4562031493272577 1.2718013328338871 2.6834957652795604 0 0 0 0.34524904506542503 83 2424 89 2439
5639 -0.032835121104229495 1.2736102600416053 2.6106807967003252 255 251 237 0.1467427257486619 64 1938 32 1513 7 1543
5641 -0.23180410415766337 0.81915383570806488 2.6385977982751103 51 82 43 0.11531516836521057 99 1583 32 1520 75 1153 51 1142
5643 -0.40331015926208114 0.37309075852391366 2.6956620137145539 204 181 107 0.18582691248893862 18 1739 61 2057 32 1530 45 1277
5645 0.071149346463338467 0.62635147112105483 2.7122547637902015 45 91 49 0.11914188552777735 99 1606 32 1554 45 1258 75 1196 51 1194
5646 -0.21457329574571521 0.19638972184417591 2.7604689758795886 137 125 69 0.40042483125810985 69 1809 32 1559 50 2026
5648 -0.34488697604972907 1.1514106078271256 2.5894186514436637 213 203 116 1.5392108178310526 69 2161 32 1597
5649 -0.48980105925609008 0.14283745075331125 2.7614153469490264 133 132 71 0.65560729619877178 56 1818 32 1624 12 1322 43 1616 31 1130
5650 -0.028479450039462062 0.44042597861658206 2.720199028155406 160 152 98 0.28699604164582648 58 2241 32 1636 50 2154 34 1812
5651 0.29256555201374346 0.57489415082709761 2.492420983384811 188 191 186 0.66877214168073762 56 1926 32 1643 64 2025
5652 -0.64624858655502726 1.0362546177474903 2.6014007158602279 100 175 82 0.16636058124339129 56 1897 32 1650
5653 -0.51042275724632036 1.1209437994841935 2.6628130584851668 172 189 107 1.2776465580218677 64 2040 32 1653 75 1268 49 1131
5655 -0.37334369069648732 -0.062134506525954758 2.4620511240035419 251 232 221 1.2830712759692513 56 1937 32 1708 7 1741
5656 0.30358937965487104 0.72015716350409187 2.8187631400668933 45 73 33 0.45215242930502719 64 2072 32 1714 7 1730
5657 -0.1915343470117794 1.2688015969197459 2.6970974086198836 120 133 84 0.18985076072088228 69 2289 32 1721 7 1772
5659 -0.21416116614131719 -0.097528821257703097 2.3558541905743366 92 124 71 1.0712046265614621 99 1783 32 1742 7 1804 88 1993
5660 -0.27222781361178544 1.2881139475929029 2.6751050034536101 78 138 61 0.20937398316691361 99 1853 32 1755 7 1807
5661 -0.64017158478755953 0.21902917550616249 2.7507049346362891 62 105 48 1.3921990873360421 56 2047 64 2183 32 1781 7 1861 83 2772 31 1259
5662 0.070318573926808819 0.85303508493687974 2.7026747964602875 115 130 76 0.21181866687042283 56 2039 64 2163 32 1791 7 1833
5663 -0.098285481676355965 0.40421550728548006 2.7161377184825528 64 98 48 1.030182966780655 56 2021 32 1799 7 1858 50 2333 34 1998
5664 -0.41305918540242365 -0.0077904934179188314 2.9075774288130543 74 93 51 1.689972657833281 56 1989 64 2111 32 1802
5665 -0.27121720654941239 1.4747538050508666 2.9095071878274346 147 182 105 0.58181875472057543 69 2438 7 1868 32 1816
5666 -0.46997654566424191 1.0970040785915935 2.6442340521319831 130 124 78 0.055064011398187743 18 648 89 670 32 65 42 637 64 630
5668 0.41090499926119317 0.55096428942713893 2.1345130574262154 102 87 55 1.3450976839637423 69 65 98 291 56 653 16 385 32 529 98 279 79 295 36 229 83 188 61 248 42 241 100 267 92 948 89 183 71 899 28 864 25 874 30 822 11 215
5669 -0.64752985364880766 0.12024487769630188 2.2199264738274214 72 129 70 0.35178272583734627 64 109 40 236 56 43 32 251 69 599 92 342 89 462 58 628 7 463
5670 -0.16390339675768725 0.85964513440711587 2.6512779309165926 53 89 45 0.10266033346009493 64 533 36 524 16 483 32 264 98 557 56 440 99 347 7 192 6 557 75 255 51 207 66 100 49 132
5671 -0.44697553930674855 -0.033488304925650421 2.2306122779493904 238 219 133 0.27123916589173208 18 118 56 87 32 386 69 476 6 59 98 164 58 509 99 79 64 49 7 555 50 515 31 249 51 95 45 435 49 308
5672 -0.96710858275978917 0.63246262944796727 2.7010280098297654 217 205 118 0.26696130108011962 18 1087 99 621 32 608 69 1263 79 548 64 958 7 757
5673 -0.68626643884149019 0.13202294468618792 2.2291077680686362 85 158 78 0.36570117520062212 64 788 61 1064 32 739 69 1624 18 1364 98 1440 83 1733 58 1714 7 943 50 1624 47 1700 65 1740 89 1764 63 1529
5675 -1.0807146005847643 0.40364528893316071 2.7949864881140463 127 156 77 0.29514686011280056 6 925 18 1028 64 869 56 688 79 1148 83 1921 32 986 7 820
5676 -0.81212825839001845 0.26849234659158888 2.2743190648099612 107 92 66 0.41623777458036704 6 881 64 834 32 1042 18 1730 98 1484
5678 0.16450639176518977 0.52067375436468166 2.7656888227736416 55 100 53 0.40821781816671626 6 1679 18 1743 32 1435 56 1412 99 1250 7 1270
5679 -0.32959184594407881 1.2938019272274959 2.6695372017212513 91 141 69 0.55729259337956349 6 1945 32 1482 64 1783 99 1422 45 783 75 1012 98 2146 16 1823 31 662 51 988 66 294
5680 -0.53247182625085931 0.710536380201369 2.6340451614917546 58 99 51 0.10904844938446703 6 1897 18 1978 64 1888 7 1570 32 1501 47 2203 50 2038 56 1715 58 2145 99 1541 16 1753 69 2062 83 2385 45 1236
5682 -0.11178999895927713 0.46486341543223786 2.6968563410077584 61 107 51 0.4029050811374465 6 1665 18 1745 79 1920 16 1582 99 1411 32 1548 69 2006 98 2058 64 1859 56 1749 58 2107 7 1614 50 2004 47 1958 88 1521 45 1270 75 1172 51 1179
5684 -0.14341049086571714 1.3780383997801355 2.7447071804390828 117 155 73 1.2117536304868541 6 2111 18 2201 64 2076 56 1945 32 1691 69 2288 83 2665 89 2687 58 2336 7 1745 50 2222 47 2462 34 1936
5685 -0.28667691222735359 0.64928735099976453 2.6455063579997047 150 141 89 0.10080909437673245 56 345 32 275 31 177
5688 -0.091657115302317071 0.80134505646736076 2.666664728558803 107 111 72 0.36693272491890999 56 1770 64 1904 32 1529 88 1709 31 1048 49 1064
5696 -0.75091677206348606 1.2180374970717232 2.7238824756557327 210 205 130 0.24810256339182779 32 8 7 10 23 309 52 953 43 225 75 64
5698 -0.75251261758782517 1.1338965062041357 2.7147841598951978 105 194 93 0.0728306673568173 32 15 7 28
5699 -0.72371472169877349 1.1320233515177622 2.6892976944988991 221 215 143 0.16513486493639923 32 19 7 30 45 36
5700 -0.72371472169877349 1.1320233515177622 2.6892976944988991 221 215 143 0.16513486493639923 32 20 7 31 45 37
5702 -0.33820393146682032 1.136286061714912 2.6457543268294534 68 115 54 0.16388345689173603 18 654 7 63 38 361
5703 -0.41454549142623498 1.1086139639497152 2.6447427994406203 221 211 137 0.09256192797517708 58 456 64 638 7 64
5706 -0.81214503629220813 0.93166218940692358 2.6727238437282415 220 211 134 0.074024594807537702 32 22 7 79
5707 -0.10217330765655086 1.1688026580693807 2.6896909110744005 160 139 103 0.25064141357676767 18 639 7 80 31 86 66 357 45 510
5709 -0.20537860415274323 1.0277792153100347 2.64691699761253 175 170 105 0.15599019931595748 69 371 7 103 50 316 75 234
5710 -0.6557255650050563 0.8346356209614374 2.6397014859427808 240 222 140 0.12997330410973262 56 195 7 120 50 546 65 626
5711 -0.17175978191397026 0.9663497098953423 2.6517789371136886 223 207 130 0.032105849125387845 69 354 7 134
5712 -0.20082838111325474 1.0194273908599494 3.0092075897107731 231 216 135 1.8438708266244372 32 226 92 1225 7 139
5713 -0.52261789393279623 0.82588539234911407 2.6284998125035961 241 225 143 0.0019639068651241451 61 590 7 145
5715 -0.40469810967697367 0.86398996877661349 2.6290811941217895 55 90 48 0.0034082267474939785 83 553 7 147
5716 -0.12093455617928378 0.95692193331467268 2.6573936469942105 218 199 120 0.1265725691481237 36 558 7 149 88 491 75 281
5719 -0.90823424087029059 0.67935492586105117 2.6847593395583704 223 208 129 0.051022241811651894 6 447 7 160
5720 -0.64354322091357463 0.74047091918971175 2.639769532952037 198 190 115 0.23120157222312707 69 606 7 167 47 622
5721 -0.056641313432083958 0.93973956807838011 2.6644489136709781 64 96 46 0.18110052278536629 36 539 7 169 75 306
5722 -0.19135464352390882 0.85757716691678476 2.6477676772789933 46 77 39 0.10627068954624795 56 428 7 183 88 975 38 312
5723 -0.19180016561276883 0.85728039194789196 2.6461821531564245 46 77 39 0.11650778578565922 56 427 7 184 66 95
5725 -1.2240479971845863 0.54239116905188201 2.9365112974358314 220 178 116 0.15745296155296712 32 18 7 197
5726 -0.57477318117113629 0.68668730206799755 2.6372138966017307 61 103 52 0.17348417913209721 32 142 61 550 7 211
5727 -0.31195671144942055 0.75952896271736425 2.6362793085188425 56 88 48 0.13113272266851905 79 541 7 217
5728 -0.038628905144028988 0.68203649308712944 1.7974426889593837 55 95 48 0.52180679561093024 16 315 7 226
5729 -0.41485492212454478 0.95475348149415418 4.0772088894646217 209 197 123 2.0804439267614709 16 1044 7 227
5730 -1.1198523621430441 0.44658941890598913 2.7583074185982794 106 143 70 1.1297771896112621 69 1280 7 236
5733 -0.49090657269162796 0.38190441603592817 1.4614578225926291 237 215 131 2.5990330149536942 92 128 7 285
5735 -0.63323656069462786 0.49823479494985806 2.6662434021130159 68 101 51 0.049091716223358575 18 387 7 291
5739 -0.26863579412596794 0.41611809937522481 1.3367319814337653 72 94 51 0.47398587243141133 83 199 7 300
5742 -0.21859251255225071 0.57901537150968896 2.6500004373149824 164 148 93 0.031486377804365029 56 362 7 330
5743 -0.4232777420983489 0.499298716563361 2.6623270783797275 58 92 45 0.077764628344500111 32 266 7 338 75 135
5745 0.19021825934896475 0.68871835164737039 2.735217613673127 68 98 54 0.23120116144051445 98 429 7 351
5747 0.27375079763536248 0.69799982770366131 2.7649837271887185 54 96 49 0.00065606409540800033 99 526 7 357
5749 -0.69198897014352811 0.33919572462641734 2.6909164450630514 83 121 58 0.10547497863928268 56 72 7 371
5751 -0.32541413378189332 0.44979172318162192 2.6776353898043608 60 90 43 0.14562073880505078 83 425 7 377 49 268 98 392
5754 -0.44536823596929143 0.33405543737652943 2.7034997850140297 149 146 83 0.14807002719928067 58 576 7 402 45 348
5763 0.48560993702669203 0.42506001605365251 1.8343309733499418 252 251 251 0.12794075419192513 99 972 7 488
5764 -0.56617423791370924 0.062102177556557427 2.2219723229973618 60 101 50 0.33360085155652391 69 551 7 498 31 185 75 46 66 101
5765 -0.28307574191309409 0.15977681367203259 2.770097131429341 160 142 83 0.014666377300799439 32 420 7 510
5767 -0.4648384558846575 -0.059690340063640414 2.2302848771031782 234 213 128 0.11875278592578524 32 391 7 562 66 174
5768 -0.18949393515482615 -0.10878278563057323 2.0799487281655744 63 119 59 1.1723173743713555 69 1001 7 618
5769 -0.26025366813916456 -0.18529988893735014 2.1487552790652926 195 192 201 0.08079147234410472 56 141 64 8 7 630
5770 -0.15196129608565473 -0.21036555110902239 1.7450470924104908 196 195 204 0.083124234153645588 32 528 7 643
5771 -0.14193019535259208 -0.24696080596927175 2.0623459617176731 255 253 207 0.30716791915367558 32 534 7 644
5772 -0.56966891850512302 1.3300480212076284 2.7217788617017149 164 178 104 0.49519776404759075 64 1179 7 650 50 1841 34 1173
5773 -0.45655763557880552 1.3272846791879396 2.6908773652506648 198 206 140 0.09545756353824765 56 922 7 651 64 1553
5774 -0.59265004097530638 1.1553973583088131 2.6633620408768497 224 216 144 0.017779905437781102 32 606 7 674
5775 -0.16881927795780255 1.20788292673608 2.6927367444780788 108 142 82 0.060869165356540265 6 1164 7 685 49 48
5776 -0.34312979288640183 1.0681954571374481 2.637085025633529 63 113 52 0.060960917155450045 56 925 7 694 45 518
5778 -0.24996351471547784 1.0787102242136621 2.6421930547804289 66 110 52 0.1518162753842992 16 1039 7 703 75 566
5782 -0.09162440702265956 1.0545072423552688 2.6663628223819256 58 109 47 0.24065881405548853 69 1000 7 722 45 534 31 502 66 80
5785 -0.23885851701678826 0.9173181464158221 2.6457815851010302 210 200 128 0.060690317242018572 99 809 7 742
5786 -0.80344023258729114 0.7052535010462565 2.6675032167500095 89 148 72 0.14282201776499756 40 1309 7 749 88 887 43 1102
5787 -0.80349177310061048 0.70559743375887563 2.6674478334402534 89 148 72 0.21270638496087438 40 1310 7 750 47 1332 88 888
5789 -0.41617673318001336 0.78389667979776345 2.6305683153891137 51 90 49 0.076511912486760772 83 1271 7 761 66 358
5792 0.26782084307398746 0.85635847934528331 2.1736934390080211 76 125 59 0.075455334241396235 6 1075 7 779
5793 0.016148342191068532 0.85600070739763257 2.6847666178167562 61 101 50 0.030684528478164046 69 974 7 781
5794 0.093233753905806627 0.86507983745660144 2.7103542219943395 192 177 113 0.054879304459821088 99 912 7 790
5796 -0.076287455400719809 0.74711537922899307 2.6742447504594029 151 142 95 0.090727947897985495 69 999 7 808 45 609 49 548
5802 -0.63059239615376883 0.33617806664068295 2.7035763644155399 78 110 55 0.24748516662373121 56 759 7 877 12 673
5803 0.37400224921606201 0.60754081617117472 2.2263190542410438 187 164 148 0.28822324130710913 16 957 64 428 7 884
5804 0.23049707505893735 0.57989950991550654 2.7595076865973316 120 135 79 0.058327896257646943 83 1080 7 907
